-0.56352	-0.58498	-0.60664	-0.62835	-0.64997	-0.67132	-0.6922	-0.71237	-0.73156	-0.74947	-0.76577	-0.7801	-0.79207	-0.80128	-0.80733	-0.80982	-0.80835	-0.8026	-0.79226	-0.7771	-0.75701	-0.73192	-0.70191	-0.66715	-0.62793	-0.58461	-0.53767	-0.48763	-0.43506	-0.38056	-0.32473	-0.26815	-0.21137	-0.15488	-0.099118	-0.044469	0.0087643	0.060343	0.11009	0.15791	0.20373	0.24756	0.28944	0.32943	0.36764	0.40414	0.43901	0.47224	0.50374	0.53328	0.56039	0.58437	0.60421	0.61861	0.62616	0.62547	0.61559	0.59631	0.56837	0.53349	0.49401	0.45249	0.41127	0.37217	0.33643	0.30469	0.27718	0.25379	0.23425	0.21817	0.20512	0.19468	0.18648	0.18016	0.1754	0.17193	0.16953	0.168	0.16717	0.1669	0.16708	0.1676	0.16838	0.16936	0.17048	0.17169	0.17295	0.17423	0.1755	0.17675	0.17796	0.1791	0.18018	0.18118	0.1821	0.18293	0.18367	0.18432	0.18487	0.18533
-0.58421	-0.60749	-0.63105	-0.65476	-0.67846	-0.70196	-0.72503	-0.7474	-0.76876	-0.78877	-0.80703	-0.82313	-0.83659	-0.84693	-0.85366	-0.85625	-0.85424	-0.84718	-0.83467	-0.81642	-0.79223	-0.76203	-0.72587	-0.68394	-0.6366	-0.58428	-0.52757	-0.46711	-0.40361	-0.3378	-0.27042	-0.20218	-0.13373	-0.065687	0.0014376	0.0672	0.13124	0.1933	0.25318	0.31077	0.36603	0.41899	0.46973	0.51835	0.56502	0.60988	0.65306	0.69463	0.73454	0.77251	0.808	0.84001	0.86703	0.88702	0.89746	0.89578	0.87993	0.84916	0.80448	0.74878	0.68614	0.62099	0.55718	0.49753	0.44376	0.39661	0.35612	0.32192	0.2934	0.26988	0.25066	0.23509	0.22258	0.21263	0.20481	0.19873	0.19409	0.19062	0.18811	0.18637	0.18526	0.18463	0.1844	0.18447	0.18476	0.18523	0.18582	0.18648	0.1872	0.18792	0.18865	0.18935	0.19001	0.19062	0.19118	0.19167	0.19208	0.19242	0.19269	0.19287
-0.60633	-0.63163	-0.65733	-0.6833	-0.70937	-0.73533	-0.76092	-0.78586	-0.80978	-0.83229	-0.85294	-0.87122	-0.88658	-0.89842	-0.90612	-0.90906	-0.90662	-0.89822	-0.88336	-0.86162	-0.83273	-0.79657	-0.75316	-0.70274	-0.64569	-0.58259	-0.51412	-0.44108	-0.36436	-0.28486	-0.20348	-0.12108	-0.038471	0.043641	0.12463	0.20399	0.28132	0.3563	0.42876	0.49858	0.56575	0.63035	0.6925	0.7524	0.81029	0.86644	0.92108	0.97442	1.0265	1.0772	1.1258	1.1711	1.2109	1.2422	1.2605	1.2609	1.2393	1.1933	1.1242	1.037	0.9391	0.83842	0.74141	0.6524	0.57362	0.50569	0.44817	0.40013	0.36038	0.32772	0.30105	0.27936	0.2618	0.24765	0.2363	0.22725	0.22009	0.21445	0.21008	0.20672	0.20418	0.20231	0.20097	0.20005	0.19947	0.19914	0.19901	0.19902	0.19913	0.19931	0.19953	0.19976	0.19999	0.20019	0.20037	0.2005	0.20058	0.20061	0.20057	0.20048
-0.62994	-0.65748	-0.68558	-0.7141	-0.74285	-0.77162	-0.80013	-0.82805	-0.855	-0.8805	-0.90403	-0.925	-0.94275	-0.95656	-0.96565	-0.96925	-0.96658	-0.95688	-0.9395	-0.91387	-0.87962	-0.83652	-0.7846	-0.7241	-0.65548	-0.57943	-0.49681	-0.40861	-0.3159	-0.21982	-0.12146	-0.021874	0.077969	0.17722	0.27515	0.37117	0.46483	0.55582	0.64393	0.72911	0.81137	0.89087	0.96782	1.0425	1.1154	1.1869	1.2574	1.3274	1.3971	1.4667	1.5357	1.6027	1.6649	1.7177	1.7538	1.764	1.7392	1.6735	1.5679	1.4314	1.2782	1.1227	0.97605	0.84465	0.73103	0.63509	0.55533	0.48967	0.43595	0.39217	0.35657	0.32768	0.30424	0.28526	0.26991	0.25751	0.24751	0.23948	0.23304	0.2279	0.22382	0.22059	0.21806	0.21609	0.21456	0.21338	0.21248	0.2118	0.21128	0.21089	0.21057	0.21031	0.21009	0.20987	0.20965	0.20942	0.20915	0.20885	0.20851	0.20812
-0.65509	-0.68512	-0.71589	-0.74726	-0.77906	-0.81104	-0.8429	-0.8743	-0.90478	-0.93384	-0.96085	-0.98513	-1.0059	-1.0222	-1.0333	-1.038	-1.0354	-1.0245	-1.0045	-0.97456	-0.93421	-0.8831	-0.82119	-0.74876	-0.66634	-0.57478	-0.47513	-0.36862	-0.25659	-0.14042	-0.021476	0.098971	0.21976	0.33989	0.45851	0.57496	0.68875	0.79956	0.90723	1.0117	1.1132	1.2118	1.3081	1.4023	1.4953	1.5876	1.6801	1.7735	1.8688	1.9665	2.0668	2.1685	2.2688	2.3612	2.4344	2.4715	2.4528	2.3631	2.2013	1.9845	1.7412	1.4991	1.277	1.0839	0.92178	0.78828	0.67965	0.59177	0.52086	0.46366	0.41749	0.38018	0.34997	0.32549	0.30562	0.28947	0.27634	0.26566	0.25696	0.24989	0.24413	0.23945	0.23564	0.23253	0.23	0.22793	0.22623	0.22481	0.22363	0.22263	0.22176	0.221	0.2203	0.21964	0.21902	0.2184	0.21778	0.21714	0.21649	0.2158
-0.68181	-0.71458	-0.74832	-0.78289	-0.81811	-0.85374	-0.88945	-0.92487	-0.9595	-0.99277	-1.024	-1.0523	-1.0768	-1.0965	-1.1101	-1.1165	-1.1144	-1.1026	-1.0799	-1.0453	-0.99809	-0.93775	-0.86418	-0.77765	-0.67881	-0.56867	-0.44855	-0.31997	-0.1846	-0.04414	0.099735	0.24548	0.39171	0.53724	0.68112	0.82261	0.96119	1.0966	1.2286	1.3575	1.4834	1.6067	1.7281	1.8482	1.9681	2.0888	2.2116	2.3381	2.4699	2.6088	2.7562	2.9124	3.0756	3.2383	3.3845	3.4845	3.4968	3.3825	3.1319	2.7789	2.3839	2.0017	1.664	1.3815	1.1521	0.96872	0.82307	0.70753	0.61571	0.54253	0.48397	0.43694	0.39902	0.36832	0.3434	0.3231	0.30652	0.29294	0.2818	0.27264	0.26508	0.25884	0.25366	0.24936	0.24577	0.24275	0.2402	0.23802	0.23615	0.23452	0.23307	0.23178	0.23059	0.22949	0.22844	0.22743	0.22644	0.22546	0.22448	0.22349
-0.71011	-0.7459	-0.78293	-0.82106	-0.86013	-0.89988	-0.93999	-0.98004	-1.0195	-1.0577	-1.0939	-1.1272	-1.1564	-1.1802	-1.1973	-1.2062	-1.2053	-1.1929	-1.1676	-1.128	-1.0732	-1.0023	-0.91511	-0.81198	-0.69363	-0.5613	-0.41662	-0.26149	-0.09798	0.07179	0.24578	0.42213	0.59917	0.77555	0.95017	1.1223	1.2913	1.4571	1.6196	1.7791	1.936	2.091	2.2451	2.3993	2.5551	2.7142	2.8787	3.0511	3.2346	3.4326	3.6492	3.888	4.1506	4.4323	4.7137	4.9476	5.0503	4.9248	4.5309	3.9389	3.2832	2.6735	2.1597	1.7488	1.4279	1.1795	0.9872	0.83775	0.72091	0.62895	0.55608	0.49796	0.45133	0.4137	0.38319	0.35833	0.33798	0.32127	0.30749	0.29608	0.28661	0.27871	0.27209	0.26652	0.26181	0.2578	0.25436	0.2514	0.2488	0.24652	0.24448	0.24264	0.24095	0.23938	0.2379	0.23649	0.23513	0.2338	0.23249	0.23118
-0.73999	-0.77908	-0.81972	-0.86181	-0.90517	-0.94956	-0.99465	-1.04	-1.0851	-1.1291	-1.1713	-1.2105	-1.2454	-1.2745	-1.2962	-1.3086	-1.3096	-1.2973	-1.2697	-1.2249	-1.1616	-1.0787	-0.97585	-0.85327	-0.71185	-0.55311	-0.37906	-0.1921	0.0051995	0.21021	0.42045	0.63363	0.84783	1.0615	1.2733	1.4826	1.6889	1.892	2.0922	2.29	2.4861	2.6816	2.8778	3.0764	3.2796	3.4899	3.7105	3.9455	4.1999	4.4803	4.7947	5.1525	5.5632	6.0313	6.5421	7.032	7.3473	7.2599	6.6385	5.6281	4.5302	3.5593	2.7852	2.1958	1.7539	1.4227	1.173	0.98287	0.83661	0.72295	0.63376	0.56316	0.50683	0.46154	0.4249	0.39507	0.37066	0.35057	0.33396	0.32017	0.30865	0.299	0.29086	0.28397	0.27809	0.27305	0.26869	0.2649	0.26157	0.25861	0.25596	0.25355	0.25135	0.2493	0.24738	0.24556	0.24382	0.24213	0.24048	0.23886
-0.77141	-0.81409	-0.8587	-0.90513	-0.95325	-1.0028	-1.0536	-1.105	-1.1565	-1.2073	-1.2565	-1.3028	-1.3447	-1.3804	-1.408	-1.4252	-1.4293	-1.4179	-1.3884	-1.3384	-1.2659	-1.1696	-1.0487	-0.90347	-0.73491	-0.54489	-0.33593	-0.11101	0.12664	0.37378	0.62733	0.88459	1.1433	1.4015	1.6581	1.9123	2.1636	2.4122	2.6585	2.9034	3.1482	3.3943	3.6438	3.899	4.1631	4.4396	4.7333	5.0501	5.3979	5.7868	6.2306	6.747	7.3579	8.0857	8.9347	9.839	10.556	10.617	9.6698	7.9854	6.1934	4.6888	3.5524	2.727	2.1317	1.699	1.3806	1.1428	0.96267	0.82436	0.71686	0.63239	0.56536	0.5117	0.4684	0.43322	0.40443	0.38074	0.36114	0.34481	0.33115	0.31966	0.30993	0.30166	0.29457	0.28845	0.28315	0.2785	0.2744	0.27075	0.26747	0.26449	0.26176	0.25923	0.25686	0.25462	0.25249	0.25044	0.24845	0.24651
-0.80431	-0.85088	-0.89979	-0.95098	-1.0044	-1.0597	-1.1167	-1.175	-1.2338	-1.2925	-1.3498	-1.4045	-1.4549	-1.4989	-1.534	-1.5574	-1.5662	-1.5569	-1.5263	-1.4712	-1.389	-1.2778	-1.1364	-0.96504	-0.76482	-0.53804	-0.28786	-0.01802	0.26743	0.56446	0.86933	1.1788	1.4901	1.8012	2.1108	2.4182	2.7231	3.026	3.3276	3.6294	3.933	4.2407	4.5551	4.8797	5.2184	5.5763	5.9597	6.3766	6.8378	7.3575	7.9552	8.6579	9.5017	10.531	11.78	13.201	14.474	14.826	13.529	10.967	8.2526	6.0515	4.4558	3.3395	2.5594	2.0072	1.6092	1.317	1.0986	0.93282	0.80508	0.7054	0.62673	0.56401	0.51356	0.47265	0.43921	0.41171	0.38893	0.36995	0.35404	0.34063	0.32925	0.31953	0.31119	0.30397	0.29768	0.29216	0.28728	0.28292	0.279	0.27544	0.27217	0.26914	0.26632	0.26366	0.26113	0.25871	0.25638	0.25411
-0.83859	-0.88933	-0.94289	-0.99926	-1.0584	-1.1201	-1.1841	-1.25	-1.3171	-1.3847	-1.4516	-1.5162	-1.5766	-1.6305	-1.675	-1.7067	-1.7219	-1.7163	-1.6857	-1.6262	-1.534	-1.4066	-1.2423	-1.041	-0.80425	-0.53472	-0.23639	0.086023	0.42745	0.7829	1.1478	1.5181	1.8908	2.2635	2.6347	3.004	3.3712	3.7371	4.103	4.4708	4.8427	5.2217	5.6113	6.0155	6.4395	6.8894	7.3728	7.8994	8.4821	9.1379	9.8904	10.773	11.831	13.127	14.719	16.586	18.376	19.093	17.609	14.247	10.566	7.59	5.4712	4.0223	3.032	2.3445	1.8572	1.5044	1.2439	1.0479	0.89806	0.78191	0.69071	0.6183	0.56022	0.51322	0.47487	0.44335	0.41725	0.39549	0.37724	0.36184	0.34874	0.33755	0.32791	0.31956	0.31227	0.30585	0.30017	0.29509	0.29051	0.28635	0.28254	0.27902	0.27573	0.27264	0.26972	0.26693	0.26425	0.26166
-0.87412	-0.92931	-0.98785	-1.0498	-1.1151	-1.1838	-1.2554	-1.3298	-1.4063	-1.484	-1.5617	-1.6378	-1.7101	-1.776	-1.832	-1.8742	-1.8979	-1.898	-1.8692	-1.8061	-1.7041	-1.5594	-1.3699	-1.1351	-0.85676	-0.5382	-0.18439	0.1987	0.60474	1.0275	1.4613	1.9014	2.3441	2.7868	3.2279	3.6669	4.1041	4.5405	4.9778	5.4184	5.865	6.3212	6.7908	7.2787	7.7903	8.3322	8.9125	9.5412	10.231	11	11.872	12.882	14.079	15.529	17.306	19.407	21.506	22.568	21.197	17.408	12.945	9.2259	6.5663	4.7613	3.5424	2.7073	2.1226	1.7039	1.3975	1.1689	0.99541	0.86162	0.75706	0.67435	0.60821	0.5548	0.5113	0.47557	0.44601	0.42137	0.40069	0.38322	0.36837	0.35565	0.34469	0.33517	0.32686	0.31953	0.31304	0.30722	0.30198	0.29722	0.29286	0.28883	0.28508	0.28156	0.27824	0.27508	0.27205	0.26913
-0.91075	-0.97063	-1.0345	-1.1024	-1.1744	-1.2505	-1.3306	-1.4142	-1.501	-1.59	-1.68	-1.7692	-1.8553	-1.9352	-2.0052	-2.0604	-2.0954	-2.1037	-2.0787	-2.0137	-1.9025	-1.7401	-1.5234	-1.2517	-0.92688	-0.55305	-0.13646	0.31541	0.7946	1.2933	1.8047	2.3229	2.8434	3.3634	3.881	4.3958	4.9081	5.4193	5.9314	6.4469	6.9689	7.5011	8.0475	8.6127	9.2019	9.8213	10.478	11.181	11.942	12.777	13.707	14.766	16.002	17.483	19.283	21.42	23.631	24.986	23.993	20.212	15.257	10.899	7.7144	5.544	4.0847	3.0923	2.4034	1.9141	1.5588	1.2955	1.0967	0.94422	0.82554	0.73198	0.65737	0.59726	0.54837	0.50827	0.47512	0.4475	0.42432	0.40473	0.38807	0.37379	0.36148	0.35078	0.34142	0.33317	0.32585	0.31929	0.31339	0.30802	0.3031	0.29857	0.29435	0.2904	0.28667	0.28313	0.27975	0.27651
-0.94825	-1.0131	-1.0825	-1.1566	-1.2358	-1.3199	-1.409	-1.5027	-1.6007	-1.7022	-1.8058	-1.9098	-2.0116	-2.108	-2.1944	-2.2655	-2.3146	-2.3341	-2.3158	-2.251	-2.132	-1.952	-1.707	-1.3957	-1.0201	-0.58536	-0.099255	0.42886	0.98898	1.5715	2.1678	2.7708	3.3752	3.9775	4.5756	5.1688	5.7576	6.3433	6.928	7.5143	8.1052	8.7039	9.3141	9.9398	10.585	11.255	11.956	12.694	13.48	14.327	15.256	16.298	17.499	18.924	20.649	22.709	24.917	26.512	26.037	22.607	17.454	12.584	8.9029	6.3641	4.6553	3.4976	2.6984	2.1344	1.7272	1.4271	1.2016	1.0295	0.89593	0.79101	0.70755	0.64046	0.58598	0.54136	0.5045	0.4738	0.44805	0.4263	0.40778	0.39192	0.37823	0.36633	0.35591	0.34673	0.33857	0.33127	0.32469	0.31871	0.31324	0.30819	0.30351	0.29912	0.29499	0.29108	0.28736	0.28378
-0.98641	-1.0563	-1.1315	-1.2123	-1.2989	-1.3915	-1.4901	-1.5947	-1.7048	-1.8197	-1.9383	-2.0587	-2.1782	-2.2932	-2.3988	-2.4887	-2.5552	-2.5892	-2.5807	-2.5192	-2.3945	-2.1982	-1.9248	-1.5722	-1.1427	-0.64261	-0.08153	0.52887	1.1762	1.8484	2.535	3.2273	3.9189	4.6053	5.2842	5.9545	6.6165	7.2714	7.9211	8.5679	9.2144	9.8634	10.518	11.181	11.856	12.546	13.257	13.995	14.767	15.588	16.477	17.464	18.592	19.924	21.534	23.471	25.621	27.395	27.471	24.619	19.529	14.278	10.132	7.222	5.2541	3.9227	3.0073	2.3642	1.9023	1.5634	1.31	1.1171	0.96808	0.85129	0.75863	0.68429	0.62404	0.57475	0.53407	0.50022	0.47184	0.44787	0.42747	0.40999	0.3949	0.38179	0.37031	0.36018	0.35118	0.34313	0.33588	0.32929	0.32326	0.3177	0.31254	0.30773	0.3032	0.29891	0.29484	0.29094
-1.0249	-1.1001	-1.1813	-1.2689	-1.3632	-1.4646	-1.5733	-1.6892	-1.8122	-1.9416	-2.0763	-2.2146	-2.3535	-2.4893	-2.6165	-2.7282	-2.8154	-2.8676	-2.8727	-2.8179	-2.6907	-2.4805	-2.1798	-1.7859	-1.3011	-0.73317	-0.093708	0.60287	1.3412	2.1067	2.8862	3.6693	4.4482	5.2174	5.9737	6.7159	7.4438	8.1584	8.8613	9.5545	10.24	10.921	11.599	12.276	12.957	13.643	14.339	15.052	15.79	16.566	17.398	18.316	19.361	20.592	22.079	23.883	25.945	27.84	28.426	26.277	21.48	15.986	11.41	8.1231	5.8841	4.3691	3.3305	2.6038	2.0841	1.7044	1.4216	1.2071	1.0419	0.91273	0.81052	0.72869	0.66247	0.60837	0.56377	0.52669	0.49563	0.4694	0.44709	0.42797	0.41147	0.39712	0.38457	0.37349	0.36365	0.35485	0.34692	0.33971	0.33312	0.32706	0.32144	0.31619	0.31126	0.3066	0.30218	0.29796
-1.0636	-1.1441	-1.2314	-1.3259	-1.4282	-1.5387	-1.6578	-1.7855	-1.9219	-2.0665	-2.2183	-2.3755	-2.5354	-2.6938	-2.845	-2.9812	-3.0924	-3.1665	-3.1892	-3.1452	-3.0195	-2.7988	-2.4738	-2.0404	-1.5014	-0.86546	-0.14684	0.63704	1.4675	2.3267	3.1989	4.0714	4.9347	5.7822	6.61	7.4162	8.2004	8.9634	9.7067	10.432	11.141	11.837	12.521	13.197	13.867	14.534	15.203	15.88	16.575	17.301	18.075	18.925	19.89	21.023	22.394	24.067	26.03	27.987	29.006	27.604	23.295	17.708	12.745	9.076	6.5509	4.84	3.6698	2.8541	2.2731	1.8503	1.5365	1.2994	1.1172	0.97527	0.86316	0.77357	0.7012	0.64216	0.59355	0.55317	0.51937	0.49084	0.46659	0.44581	0.42789	0.4123	0.39866	0.38664	0.37595	0.3664	0.35779	0.34997	0.34283	0.33626	0.33017	0.32449	0.31917	0.31414	0.30938	0.30483
-1.102	-1.1879	-1.2813	-1.3829	-1.4932	-1.613	-1.7426	-1.8824	-2.0326	-2.1929	-2.3624	-2.5395	-2.7214	-2.9039	-3.081	-3.2441	-3.3821	-3.4814	-3.5257	-3.4971	-3.3776	-3.1512	-2.8063	-2.3376	-1.7476	-1.0466	-0.25101	0.61821	1.5389	2.4895	3.4515	4.4095	5.3522	6.2718	7.1636	8.0253	8.8563	9.6572	10.43	11.175	11.897	12.596	13.277	13.941	14.592	15.234	15.872	16.513	17.166	17.843	18.564	19.352	20.245	21.291	22.556	24.106	25.962	27.934	29.293	28.617	24.951	19.437	14.146	10.09	7.2613	5.3395	4.0276	3.1164	2.47	2.0015	1.655	1.3941	1.1943	1.0389	0.91653	0.81892	0.74021	0.67609	0.62336	0.57962	0.54303	0.51217	0.48595	0.46349	0.44413	0.4273	0.41257	0.39959	0.38806	0.37775	0.36847	0.36004	0.35235	0.34527	0.33872	0.33262	0.3269	0.32151	0.31641	0.31155
-1.1398	-1.2311	-1.3306	-1.4392	-1.5576	-1.6866	-1.8267	-1.9787	-2.1428	-2.3189	-2.5065	-2.7039	-2.9085	-3.1161	-3.3203	-3.512	-3.6792	-3.8068	-3.8763	-3.8674	-3.7593	-3.533	-3.1743	-2.6764	-2.0414	-1.2808	-0.41365	0.536	1.5421	2.5794	3.6261	4.6641	5.6804	6.6656	7.6144	8.524	9.3938	10.225	11.018	11.777	12.504	13.201	13.873	14.522	15.153	15.77	16.379	16.987	17.602	18.238	18.912	19.647	20.477	21.446	22.615	24.052	25.799	27.749	29.352	29.336	26.419	21.153	15.615	11.175	8.0234	5.8731	4.4072	3.3926	2.6759	2.1586	1.7775	1.4915	1.2731	1.1037	0.97065	0.86474	0.77949	0.71015	0.6532	0.60601	0.56658	0.53335	0.50513	0.48099	0.46017	0.44209	0.42627	0.41233	0.39996	0.3889	0.37894	0.36991	0.36167	0.35409	0.34708	0.34056	0.33445	0.3287	0.32326	0.31809
-1.1768	-1.2733	-1.3788	-1.4943	-1.6206	-1.7587	-1.9093	-2.0733	-2.2511	-2.443	-2.6484	-2.8662	-3.0937	-3.3266	-3.5585	-3.7798	-3.9777	-4.1357	-4.2335	-4.2486	-4.157	-3.937	-3.5718	-3.0525	-2.3809	-1.569	-0.63803	0.38456	1.469	2.5865	3.7116	4.8237	5.9075	6.9526	7.9526	8.9046	9.8079	10.664	11.474	12.243	12.972	13.666	14.329	14.965	15.578	16.173	16.757	17.336	17.92	18.521	19.156	19.845	20.619	21.52	22.604	23.939	25.579	27.476	29.24	29.788	27.671	22.828	17.148	12.339	8.8456	6.4465	4.8123	3.6852	2.8923	2.3225	1.9045	1.5918	1.3538	1.1698	1.0256	0.91106	0.81904	0.74432	0.68305	0.63234	0.59001	0.55437	0.52413	0.49827	0.47599	0.45665	0.43974	0.42485	0.41163	0.39982	0.38919	0.37956	0.37077	0.3627	0.35524	0.3483	0.34181	0.3357	0.32993	0.32444
-1.2126	-1.3142	-1.4255	-1.5477	-1.6816	-1.8285	-1.9893	-2.1649	-2.356	-2.5632	-2.7861	-3.0237	-3.2735	-3.5315	-3.7908	-4.0419	-4.2711	-4.4608	-4.5893	-4.6317	-4.5617	-4.3544	-3.9905	-3.459	-2.7604	-1.9073	-0.92267	0.16343	1.3177	2.5075	3.7042	4.8843	6.0303	7.1305	8.1777	9.1687	10.103	10.982	11.808	12.586	13.318	14.01	14.666	15.291	15.89	16.468	17.031	17.588	18.147	18.719	19.32	19.97	20.697	21.539	22.548	23.789	25.324	27.151	29.004	30.006	28.685	24.423	18.735	13.587	9.7364	7.0666	5.2473	3.9967	3.1209	2.4943	2.0365	1.6955	1.4368	1.2374	1.0815	0.95796	0.85892	0.77865	0.71292	0.6586	0.61331	0.57522	0.54293	0.51534	0.49158	0.47098	0.45297	0.43711	0.42305	0.4105	0.3992	0.38897	0.37964	0.37108	0.36317	0.35582	0.34895	0.34249	0.33639	0.3306
-1.2469	-1.3533	-1.4702	-1.5987	-1.74	-1.8953	-2.0656	-2.2523	-2.4562	-2.6779	-2.9174	-3.1739	-3.4451	-3.727	-4.013	-4.293	-4.5532	-4.775	-4.9355	-5.0079	-4.9635	-4.7751	-4.4204	-3.8862	-3.1716	-2.2887	-1.2616	-0.1227	1.0917	2.3455	3.6068	4.8491	6.0528	7.2046	8.2965	9.3248	10.289	11.191	12.034	12.822	13.56	14.253	14.905	15.523	16.112	16.677	17.225	17.764	18.302	18.851	19.424	20.041	20.727	21.518	22.46	23.616	25.052	26.795	28.679	30.026	29.45	25.896	20.355	14.922	10.704	7.7404	5.7172	4.3304	3.3636	2.6752	2.1746	1.8031	1.5223	1.3067	1.1385	1.0055	0.89919	0.81316	0.74284	0.68481	0.63648	0.59589	0.56152	0.53218	0.50693	0.48505	0.46594	0.44912	0.43422	0.42092	0.40896	0.39814	0.38828	0.37923	0.37087	0.36312	0.35587	0.34906	0.34264	0.33655
-1.2794	-1.3904	-1.5125	-1.647	-1.7951	-1.9582	-2.1376	-2.3346	-2.5503	-2.7855	-3.0404	-3.3145	-3.6056	-3.91	-4.2209	-4.5284	-4.8184	-5.0717	-5.2644	-5.3685	-5.3533	-5.1891	-4.8511	-4.3238	-3.6041	-2.7033	-1.6457	-0.46521	0.79915	2.1083	3.4271	4.7262	5.9837	7.1845	8.3196	9.3848	10.379	11.306	12.167	12.968	13.714	14.41	15.063	15.678	16.261	16.817	17.355	17.88	18.403	18.933	19.483	20.072	20.723	21.467	22.35	23.43	24.773	26.426	28.298	29.888	29.97	27.204	21.979	16.341	11.755	8.4752	6.2272	4.6898	3.6228	2.8668	2.3195	1.9152	1.6109	1.3779	1.1967	1.0539	0.93994	0.84793	0.77285	0.71099	0.65956	0.61641	0.57991	0.54879	0.52203	0.49887	0.47865	0.46087	0.44512	0.43108	0.41846	0.40705	0.39665	0.38712	0.37833	0.37017	0.36256	0.35541	0.34867	0.34228
-1.3098	-1.425	-1.552	-1.692	-1.8465	-2.0168	-2.2044	-2.4108	-2.6372	-2.8847	-3.1537	-3.4437	-3.7529	-4.0776	-4.4114	-4.7443	-5.0621	-5.3455	-5.5699	-5.7063	-5.7226	-5.5872	-5.2727	-4.761	-4.0468	-3.1398	-2.0636	-0.85311	0.45091	1.8067	3.176	4.5267	5.8343	7.082	8.2594	9.3615	10.388	11.339	12.221	13.038	13.795	14.499	15.155	15.77	16.351	16.903	17.433	17.949	18.46	18.974	19.506	20.071	20.692	21.397	22.227	23.237	24.493	26.053	27.883	29.627	30.26	28.313	23.569	17.835	12.896	9.2788	6.7833	5.0789	3.9009	3.0705	2.4724	2.0326	1.7029	1.4514	1.2565	1.1033	0.98128	0.88301	0.803	0.73719	0.68255	0.63678	0.59811	0.56518	0.5369	0.51242	0.49109	0.47234	0.45575	0.44097	0.42769	0.41569	0.40477	0.39476	0.38554	0.37698	0.369	0.36152	0.35447	0.34779
-1.3379	-1.457	-1.5884	-1.7335	-1.8936	-2.0704	-2.2654	-2.4802	-2.7162	-2.9746	-3.2559	-3.5599	-3.8851	-4.2278	-4.582	-4.9377	-5.281	-5.5924	-5.8473	-6.0159	-6.0652	-5.9619	-5.6766	-5.1885	-4.4895	-3.5872	-2.504	-1.2747	0.058826	1.4525	2.8654	4.2625	5.6168	6.9094	8.1283	9.2676	10.326	11.305	12.21	13.045	13.816	14.53	15.193	15.812	16.393	16.944	17.47	17.98	18.482	18.985	19.501	20.046	20.64	21.311	22.094	23.042	24.217	25.685	27.45	29.278	30.347	29.197	25.082	19.388	14.13	10.159	7.3918	5.5019	4.2008	3.2883	2.6345	2.1561	1.7989	1.5276	1.318	1.1537	1.0233	0.91852	0.83336	0.76345	0.7055	0.65703	0.61614	0.58135	0.55152	0.52573	0.50326	0.48355	0.46611	0.45058	0.43665	0.42406	0.41262	0.40214	0.39248	0.38354	0.3752	0.36739	0.36003	0.35306
-1.3636	-1.4862	-1.6215	-1.771	-1.9362	-2.1187	-2.3201	-2.5422	-2.7865	-3.0543	-3.3463	-3.6624	-4.0012	-4.3595	-4.7312	-5.107	-5.4729	-5.8099	-6.0934	-6.2934	-6.3764	-6.3078	-6.0562	-5.5983	-4.9232	-4.0357	-2.9562	-1.7187	-0.36554	1.0575	2.5071	3.9454	5.3429	6.6782	7.9378	9.1145	10.206	11.215	12.144	12.999	13.786	14.513	15.186	15.812	16.397	16.949	17.474	17.98	18.476	18.97	19.474	20.002	20.574	21.213	21.955	22.847	23.948	25.327	27.015	28.869	30.262	29.845	26.471	20.975	15.457	11.122	8.0592	5.9636	4.5256	3.5222	2.8071	2.2864	1.8996	1.6068	1.3816	1.2056	1.0663	0.95457	0.86401	0.78983	0.72845	0.6772	0.63402	0.59734	0.56591	0.53878	0.51518	0.49448	0.47619	0.45991	0.44533	0.43216	0.42019	0.40924	0.39916	0.38983	0.38114	0.373	0.36534	0.3581
-1.3866	-1.5123	-1.6511	-1.8044	-1.974	-2.1613	-2.3683	-2.5966	-2.8479	-3.1235	-3.4243	-3.7504	-4.1006	-4.4719	-4.8585	-5.2514	-5.6371	-5.997	-6.3069	-6.537	-6.6535	-6.6211	-6.4066	-5.9845	-5.3407	-4.4769	-3.4109	-2.1751	-0.81174	0.63242	2.1118	3.5862	5.0231	6.3989	7.6981	8.9121	10.038	11.077	12.032	12.91	13.716	14.458	15.142	15.777	16.368	16.924	17.45	17.955	18.447	18.935	19.429	19.943	20.495	21.108	21.813	22.654	23.687	24.981	26.584	28.424	30.04	30.26	27.694	22.563	16.871	12.174	8.7928	6.4694	4.8789	3.7744	2.9916	2.4247	2.0055	1.6896	1.4475	1.259	1.1102	0.99126	0.89505	0.8164	0.75145	0.69731	0.65177	0.61314	0.5801	0.5516	0.52684	0.50514	0.48599	0.46897	0.45372	0.43997	0.42749	0.41607	0.40557	0.39586	0.38681	0.37835	0.3704	0.36288
-1.4069	-1.5352	-1.677	-1.8336	-2.0068	-2.1983	-2.4098	-2.6431	-2.9	-3.1819	-3.4899	-3.824	-4.1833	-4.565	-4.9638	-5.371	-5.7736	-6.1537	-6.4876	-6.7461	-6.8956	-6.9	-6.7252	-6.343	-5.7367	-4.9042	-3.8605	-2.6356	-1.2708	0.18642	1.6889	3.194	4.6666	6.0804	7.4179	8.6689	9.8291	10.899	11.882	12.784	13.61	14.369	15.067	15.713	16.313	16.874	17.404	17.909	18.4	18.883	19.37	19.872	20.408	20.997	21.669	22.464	23.436	24.649	26.164	27.96	29.715	30.459	28.715	24.112	18.361	13.321	9.5997	7.0248	5.2644	4.0476	3.1898	2.572	2.1174	1.7765	1.5162	1.3143	1.1554	1.0288	0.92657	0.84323	0.77456	0.71742	0.66944	0.6288	0.59409	0.5642	0.53825	0.51554	0.49553	0.47775	0.46184	0.4475	0.4345	0.42262	0.4117	0.40161	0.39222	0.38344	0.37519	0.36741
-1.4244	-1.555	-1.6991	-1.8585	-2.0346	-2.2293	-2.4444	-2.6818	-2.943	-3.2298	-3.5432	-3.8834	-4.2497	-4.6395	-5.0479	-5.4666	-5.8833	-6.2809	-6.6365	-6.9215	-7.1028	-7.1442	-7.0105	-6.6716	-6.1075	-5.313	-4.2992	-3.0934	-1.7355	-0.27276	1.2463	2.7768	4.2811	5.7303	7.1045	8.3918	9.5865	10.688	11.7	12.627	13.475	14.253	14.967	15.625	16.235	16.803	17.338	17.846	18.337	18.817	19.298	19.792	20.313	20.882	21.525	22.279	23.194	24.332	25.76	27.491	29.317	30.469	29.512	25.574	19.907	14.564	10.487	7.636	5.6866	4.3445	3.4035	2.7294	2.2362	1.8679	1.588	1.3717	1.202	1.0672	0.9587	0.87042	0.79784	0.73757	0.68706	0.64435	0.60792	0.57659	0.54943	0.52569	0.50479	0.48625	0.46968	0.45476	0.44123	0.42889	0.41756	0.40708	0.39735	0.38826	0.37973	0.37167
-1.4391	-1.5714	-1.7176	-1.879	-2.0575	-2.2547	-2.4725	-2.7127	-2.9771	-3.2674	-3.5846	-3.9292	-4.3005	-4.6962	-5.1118	-5.5395	-5.9679	-6.3804	-6.7552	-7.0648	-7.2765	-7.3544	-7.2625	-6.969	-6.4511	-5.6998	-4.7225	-3.5433	-2.1999	-0.73887	0.79034	2.341	3.873	5.3547	6.7639	8.0865	9.3156	10.45	11.491	12.444	13.316	14.113	14.844	15.516	16.137	16.715	17.256	17.769	18.261	18.74	19.217	19.703	20.213	20.763	21.381	22.098	22.961	24.031	25.373	27.027	28.871	30.322	30.076	26.905	21.483	15.901	11.461	8.3098	6.1501	4.6682	3.6347	2.8985	2.3627	1.9646	1.6634	1.4315	1.2503	1.1067	0.99155	0.89807	0.82137	0.75783	0.70467	0.6598	0.6216	0.58879	0.56039	0.5356	0.5138	0.49448	0.47724	0.46173	0.44768	0.43487	0.42313	0.41228	0.40221	0.39281	0.38399	0.37567
-1.451	-1.5847	-1.7323	-1.8953	-2.0754	-2.2744	-2.494	-2.7362	-3.0027	-3.2951	-3.6148	-3.9621	-4.3366	-4.7362	-5.1569	-5.5914	-6.029	-6.4541	-6.8459	-7.1779	-7.4184	-7.532	-7.482	-7.2353	-6.7663	-6.0626	-5.1275	-3.9813	-2.6594	-1.2069	0.32626	1.8919	3.4474	4.9587	6.4008	7.7578	9.0209	10.187	11.258	12.239	13.135	13.954	14.703	15.39	16.024	16.612	17.161	17.679	18.173	18.653	19.128	19.608	20.107	20.643	21.237	21.922	22.739	23.744	25.006	26.576	28.397	30.05	30.414	28.062	23.051	17.325	12.528	9.0529	6.6602	5.0223	3.8856	3.0806	2.4979	2.0672	1.7428	1.4941	1.3005	1.1476	1.0253	0.92626	0.84523	0.77824	0.72232	0.67521	0.63516	0.60083	0.57115	0.54528	0.52256	0.50246	0.48453	0.46842	0.45385	0.44058	0.42841	0.41719	0.40678	0.39707	0.38797	0.3794
-1.4602	-1.5948	-1.7434	-1.9075	-2.0886	-2.2886	-2.5093	-2.7525	-3.0201	-3.3136	-3.6344	-3.983	-4.3591	-4.761	-5.1848	-5.6242	-6.0688	-6.5043	-6.9109	-7.2633	-7.5309	-7.6788	-7.6703	-7.471	-7.0529	-6.4001	-5.5119	-4.4046	-3.1104	-1.673	-0.14174	1.4337	3.0086	4.5463	6.0194	7.4094	8.7058	9.9046	11.006	12.015	12.936	13.776	14.545	15.249	15.897	16.495	17.053	17.578	18.077	18.558	19.032	19.508	19.999	20.521	21.095	21.75	22.525	23.472	24.657	26.141	27.913	29.687	30.546	29.012	24.57	18.822	13.692	9.8725	7.2227	5.4106	4.1589	3.2773	2.6429	2.1764	1.8267	1.5598	1.3528	1.1899	1.06	0.95511	0.8695	0.79889	0.74007	0.6906	0.64864	0.61272	0.58172	0.55475	0.53109	0.51017	0.49155	0.47483	0.45973	0.44599	0.43341	0.42182	0.41107	0.40106	0.39168	0.38285
-1.4667	-1.6019	-1.7511	-1.9157	-2.0973	-2.2978	-2.5188	-2.7622	-3.0299	-3.3235	-3.6442	-3.9929	-4.3692	-4.7718	-5.1972	-5.6396	-6.0895	-6.5334	-6.9527	-7.3236	-7.6164	-7.7971	-7.8292	-7.6772	-7.3112	-6.7119	-5.8744	-4.8111	-3.5504	-2.1338	-0.61032	0.96981	2.5599	4.1209	5.6226	7.0442	8.3734	9.6043	10.737	11.773	12.72	13.584	14.373	15.094	15.757	16.368	16.936	17.468	17.972	18.456	18.93	19.403	19.887	20.397	20.954	21.583	22.32	23.213	24.326	25.725	27.431	29.26	30.498	29.736	25.992	20.37	14.952	10.775	7.8436	5.8376	4.4573	3.4906	2.7989	2.2931	1.9158	1.6291	1.4076	1.2339	1.0959	0.98474	0.89427	0.81983	0.75795	0.70603	0.66206	0.6245	0.59213	0.56401	0.53939	0.51765	0.49831	0.48098	0.46534	0.45113	0.43812	0.42616	0.41508	0.40476	0.3951	0.38603
-1.4706	-1.6061	-1.7554	-1.9201	-2.1017	-2.302	-2.5227	-2.7657	-3.0327	-3.3254	-3.6452	-3.9928	-4.3682	-4.7702	-5.1958	-5.6396	-6.093	-6.5435	-6.9738	-7.3611	-7.6772	-7.889	-7.9604	-7.8553	-7.5419	-6.9978	-6.2142	-5.1991	-3.9771	-2.5871	-1.0767	0.50314	2.1043	3.6852	5.2132	6.6649	8.0258	9.2886	10.452	11.517	12.49	13.378	14.188	14.928	15.606	16.23	16.809	17.35	17.86	18.348	18.823	19.294	19.773	20.273	20.814	21.42	22.122	22.968	24.014	25.33	26.957	28.794	30.304	30.229	27.272	21.94	16.307	11.768	8.5295	6.3079	4.7841	3.7225	2.9672	2.4181	2.0105	1.7023	1.4651	1.2798	1.1331	1.0153	0.91964	0.84114	0.77605	0.72154	0.67547	0.63619	0.6024	0.5731	0.54747	0.52488	0.50481	0.48686	0.47067	0.45598	0.44255	0.43021	0.41879	0.40817	0.39824	0.38892
-1.472	-1.6074	-1.7566	-1.921	-2.1021	-2.3018	-2.5216	-2.7635	-3.0291	-3.3202	-3.6381	-3.9837	-4.3571	-4.7574	-5.182	-5.6259	-6.0814	-6.537	-6.9764	-7.3783	-7.7158	-7.9569	-8.0661	-8.0069	-7.7461	-7.2583	-6.531	-5.5677	-4.389	-3.0307	-1.5387	0.035992	1.644	3.2415	4.7932	6.2734	7.6651	8.9593	10.153	11.248	12.248	13.16	13.991	14.75	15.445	16.084	16.674	17.224	17.742	18.235	18.711	19.182	19.656	20.149	20.676	21.261	21.933	22.734	23.719	24.956	26.5	28.307	29.997	30.502	28.369	23.493	17.746	12.855	9.2875	6.8268	5.1428	3.9753	3.1495	2.5524	2.1117	1.7799	1.5257	1.3279	1.1718	1.0468	0.9457	0.8629	0.7944	0.73717	0.68891	0.64783	0.61256	0.58202	0.55535	0.53189	0.51107	0.49247	0.47573	0.46055	0.44669	0.43397	0.42222	0.41129	0.40109	0.39152
-1.471	-1.6061	-1.7548	-1.9185	-2.0988	-2.2973	-2.5158	-2.756	-3.0197	-3.3085	-3.6238	-3.9666	-4.3373	-4.7349	-5.1574	-5.6003	-6.0566	-6.5157	-6.9627	-7.3774	-7.7344	-8.0029	-8.1481	-8.1336	-7.9247	-7.4937	-6.8244	-5.916	-4.7848	-3.463	-1.9945	-0.42966	1.1809	2.7916	4.3645	5.8713	7.2927	8.6179	9.8422	10.966	11.994	12.931	13.785	14.564	15.276	15.929	16.532	17.092	17.618	18.116	18.596	19.067	19.538	20.024	20.54	21.106	21.75	22.511	23.44	24.602	26.061	27.814	29.607	30.576	29.253	24.985	19.254	14.04	10.124	7.4002	5.5372	4.2515	3.3472	2.6972	2.2199	1.8624	1.5898	1.3784	1.2121	1.0796	0.97256	0.88519	0.81308	0.75298	0.7024	0.65943	0.62261	0.59079	0.56305	0.53868	0.51709	0.49783	0.48052	0.46484	0.45055	0.43744	0.42535	0.41412	0.40365	0.39383
-1.4679	-1.6024	-1.7502	-1.913	-2.092	-2.2891	-2.5057	-2.7438	-3.005	-3.291	-3.6031	-3.9425	-4.3096	-4.7038	-5.1233	-5.5642	-6.0203	-6.4817	-6.9347	-7.3605	-7.7351	-8.0291	-8.2084	-8.2369	-8.079	-7.7049	-7.0948	-6.2438	-5.1636	-3.8826	-2.4423	-0.89213	0.71687	2.3372	3.9285	5.46	6.91	8.2654	9.5202	10.674	11.729	12.691	13.568	14.368	15.098	15.767	16.383	16.954	17.488	17.993	18.477	18.949	19.419	19.899	20.404	20.954	21.574	22.299	23.177	24.269	25.643	27.327	29.161	30.48	29.91	26.369	20.807	15.322	11.047	8.0344	5.9719	4.5541	3.5623	2.8536	2.336	1.9504	1.6576	1.4316	1.2544	1.1136	1.0003	0.90809	0.83216	0.76901	0.71598	0.67104	0.6326	0.59943	0.57058	0.54526	0.52288	0.50294	0.48504	0.46886	0.45412	0.44063	0.42819	0.41665	0.40591	0.39584
-1.4627	-1.5963	-1.7431	-1.9046	-2.0821	-2.2773	-2.4918	-2.7273	-2.9856	-3.2683	-3.5768	-3.9122	-4.2752	-4.6653	-5.0811	-5.5192	-5.9739	-6.4365	-6.8942	-7.3295	-7.7199	-8.0373	-8.2488	-8.3185	-8.2103	-7.8925	-7.3423	-6.5505	-5.5244	-4.2884	-2.8809	-1.3499	0.25327	1.8796	3.4866	5.0408	6.518	7.9029	9.1879	10.371	11.454	12.443	13.343	14.164	14.913	15.598	16.228	16.811	17.354	17.866	18.355	18.829	19.298	19.774	20.271	20.806	21.404	22.096	22.927	23.955	25.248	26.852	28.682	30.248	30.338	27.599	22.373	16.697	12.061	8.7358	6.4518	4.8862	3.7969	3.023	2.461	2.0444	1.7297	1.4877	1.2988	1.1492	1.0291	0.93169	0.85169	0.78532	0.72971	0.68268	0.64254	0.60797	0.57795	0.55166	0.52845	0.5078	0.4893	0.47259	0.45741	0.44352	0.43073	0.41889	0.40787	0.39756
-1.4556	-1.5881	-1.7337	-1.8936	-2.0693	-2.2624	-2.4744	-2.7071	-2.9621	-3.2411	-3.5455	-3.8766	-4.2349	-4.6204	-5.0319	-5.4664	-5.919	-6.3817	-6.8428	-7.2862	-7.6906	-8.0294	-8.2709	-8.3798	-8.3198	-8.0575	-7.5673	-6.8361	-5.8668	-4.6793	-3.3089	-1.8016	-0.20851	1.4202	3.0399	4.6146	6.1175	7.5311	8.8459	10.058	11.17	12.185	13.11	13.953	14.721	15.423	16.068	16.663	17.216	17.736	18.23	18.707	19.176	19.649	20.138	20.661	21.239	21.902	22.69	23.659	24.874	26.394	28.188	29.911	30.551	28.637	23.91	18.153	13.171	9.5114	6.9821	5.2515	4.0533	3.2069	2.5958	2.1452	1.8064	1.5471	1.3455	1.1864	1.0591	0.95609	0.87175	0.80196	0.74362	0.69439	0.65245	0.61641	0.58517	0.55786	0.5338	0.51242	0.4933	0.47606	0.46041	0.44612	0.43297	0.42082	0.40953	0.39897
-1.4467	-1.578	-1.7221	-1.8803	-2.054	-2.2447	-2.4539	-2.6835	-2.9349	-3.2099	-3.5099	-3.8362	-4.1896	-4.57	-4.9767	-5.4071	-5.8568	-6.3186	-6.7819	-7.2319	-7.6487	-8.007	-8.2764	-8.4224	-8.4087	-8.2007	-7.7703	-7.1007	-6.1903	-5.0547	-3.7253	-2.246	-0.66722	0.96013	2.5895	4.1824	5.7094	7.1508	8.495	9.737	10.877	11.919	12.869	13.734	14.522	15.242	15.901	16.509	17.073	17.601	18.102	18.582	19.053	19.524	20.007	20.519	21.079	21.716	22.466	23.38	24.522	25.957	27.692	29.5	30.573	29.459	25.375	19.673	14.379	10.368	7.5688	5.6541	4.3341	3.4069	2.7415	2.2535	1.8884	1.6102	1.3948	1.2254	1.0904	0.98139	0.89242	0.81899	0.75776	0.7062	0.66237	0.62478	0.59227	0.56389	0.53894	0.51681	0.49704	0.47925	0.46313	0.44842	0.43492	0.42245	0.41088	0.40008
-1.4362	-1.5661	-1.7085	-1.8648	-2.0363	-2.2244	-2.4307	-2.6569	-2.9046	-3.1753	-3.4707	-3.7919	-4.1399	-4.515	-4.9164	-5.3421	-5.7882	-6.2484	-6.713	-7.1682	-7.5957	-7.9715	-8.2667	-8.4477	-8.4782	-8.323	-7.9517	-7.3442	-6.4945	-5.4136	-4.1291	-2.682	-1.1217	0.5005	2.1364	3.7449	5.2944	6.7625	8.1355	9.4069	10.576	11.645	12.62	13.508	14.316	15.054	15.73	16.352	16.927	17.464	17.971	18.456	18.928	19.398	19.876	20.379	20.924	21.537	22.252	23.116	24.19	25.542	27.204	29.04	30.435	30.051	26.719	21.23	15.685	11.312	8.2181	6.0983	4.6422	3.6251	2.8993	2.37	1.9761	1.6773	1.4469	1.2664	1.123	1.0077	0.91377	0.83647	0.77216	0.71814	0.67232	0.6331	0.59924	0.56976	0.54387	0.52096	0.50053	0.48217	0.46556	0.45043	0.43656	0.42378	0.41192	0.40087
-1.4243	-1.5526	-1.6932	-1.8474	-2.0165	-2.2019	-2.4051	-2.6277	-2.8714	-3.1377	-3.4282	-3.7442	-4.0866	-4.456	-4.8518	-5.2724	-5.7144	-6.1722	-6.637	-7.0963	-7.5329	-7.9245	-8.2433	-8.4569	-8.5296	-8.4254	-8.1123	-7.5669	-6.7791	-5.7554	-4.5192	-3.1084	-1.5707	0.042401	1.6814	3.3031	4.8732	6.3667	7.7679	9.0685	10.266	11.363	12.363	13.275	14.105	14.861	15.554	16.189	16.776	17.323	17.838	18.328	18.803	19.272	19.747	20.241	20.772	21.364	22.048	22.867	23.878	25.149	26.73	28.553	30.169	30.417	27.899	22.791	17.081	12.35	8.9368	6.5892	4.981	3.8634	3.0706	2.4957	2.0701	1.7489	1.5022	1.3097	1.1573	1.0351	0.93589	0.85445	0.78687	0.73024	0.68232	0.64139	0.60612	0.57547	0.54861	0.52488	0.50376	0.48481	0.4677	0.45214	0.4379	0.42479	0.41265	0.40135
-1.411	-1.5376	-1.6764	-1.8284	-1.9949	-2.1774	-2.3774	-2.5963	-2.8359	-3.0976	-3.383	-3.6936	-4.0303	-4.3937	-4.7836	-5.1987	-5.6362	-6.0909	-6.5551	-7.0173	-7.4615	-7.867	-8.2074	-8.4514	-8.5639	-8.5088	-8.2525	-7.7689	-7.044	-6.0797	-4.8949	-3.5242	-2.0133	-0.41313	1.2256	2.8577	4.4463	5.964	7.3927	8.722	9.9485	11.073	12.1	13.035	13.887	14.663	15.372	16.022	16.622	17.179	17.702	18.198	18.676	19.146	19.618	20.106	20.625	21.198	21.853	22.631	23.584	24.779	26.275	28.055	29.807	30.575	28.879	24.311	18.554	13.484	9.7317	7.1323	5.3541	4.1244	3.2569	2.6316	2.1712	1.8253	1.5609	1.3554	1.1933	1.0637	0.95884	0.87299	0.80194	0.74254	0.69239	0.64965	0.61291	0.58103	0.55315	0.52858	0.50673	0.48718	0.46955	0.45354	0.43892	0.42548	0.41306	0.40151
-1.3964	-1.5214	-1.6581	-1.8078	-1.9717	-2.1512	-2.3478	-2.563	-2.7983	-3.0553	-3.3356	-3.6406	-3.9714	-4.3287	-4.7125	-5.1218	-5.5543	-6.0054	-6.4681	-6.9321	-7.3827	-7.8003	-8.1602	-8.4323	-8.5823	-8.5742	-8.3732	-7.9507	-7.2891	-6.3859	-5.2554	-3.9285	-2.4483	-0.86505	0.76989	2.4095	4.0145	5.5549	7.01	8.3679	9.6231	10.776	11.829	12.789	13.663	14.459	15.186	15.851	16.464	17.032	17.564	18.066	18.548	19.019	19.49	19.972	20.481	21.037	21.667	22.407	23.307	24.43	25.842	27.559	29.379	30.549	29.638	25.747	20.086	14.717	10.61	7.7335	5.7658	4.4106	3.46	2.7788	2.2799	1.9071	1.6234	1.4037	1.2312	1.0937	0.98273	0.89217	0.81742	0.75508	0.70256	0.65792	0.61961	0.58645	0.55751	0.53204	0.50945	0.48927	0.4711	0.45464	0.43963	0.42585	0.41314	0.40134
-1.3808	-1.5039	-1.6385	-1.7858	-1.9471	-2.1235	-2.3167	-2.528	-2.7589	-3.0112	-3.2863	-3.5856	-3.9104	-4.2614	-4.6389	-5.0422	-5.4693	-5.9163	-6.3769	-6.8416	-7.2972	-7.7254	-8.1027	-8.4007	-8.5859	-8.6225	-8.4749	-8.1125	-7.5144	-6.6736	-5.6	-4.3202	-2.8747	-1.3123	0.31518	1.9593	3.5783	5.1397	6.6204	8.0062	9.2901	10.471	11.551	12.536	13.433	14.25	14.995	15.676	16.303	16.882	17.423	17.932	18.419	18.892	19.362	19.839	20.339	20.88	21.487	22.194	23.045	24.102	25.431	27.072	28.908	30.371	30.167	27.049	21.646	16.046	11.577	8.3992	6.2204	4.725	3.6818	2.9385	2.3972	1.9948	1.69	1.455	1.2711	1.1251	1.0076	0.91204	0.83334	0.76787	0.71286	0.66619	0.62624	0.59174	0.56168	0.53528	0.51192	0.49108	0.47236	0.45543	0.44001	0.4259	0.41289	0.40084
-1.3643	-1.4854	-1.6179	-1.7628	-1.9212	-2.0946	-2.2842	-2.4915	-2.7181	-2.9656	-3.2354	-3.529	-3.8477	-4.1924	-4.5635	-4.9605	-5.3819	-5.8242	-6.282	-6.7467	-7.206	-7.6431	-8.0361	-8.3577	-8.5757	-8.6546	-8.5585	-8.255	-7.72	-6.9425	-5.928	-4.6985	-3.2914	-1.754	-0.13758	1.5078	3.1383	4.7189	6.2241	7.6373	8.9497	10.159	11.266	12.276	13.197	14.035	14.798	15.497	16.137	16.729	17.279	17.796	18.289	18.765	19.234	19.708	20.201	20.729	21.315	21.991	22.798	23.793	25.043	26.602	28.416	30.075	30.474	28.177	23.199	17.463	12.638	9.1361	6.7233	5.0711	3.9244	3.1121	2.524	2.0891	1.7611	1.5095	1.3133	1.1581	1.0337	0.93266	0.84976	0.78096	0.7233	0.6745	0.63281	0.59689	0.56566	0.53829	0.51412	0.4926	0.47331	0.4559	0.44007	0.4256	0.4123	0.4
-1.3468	-1.4661	-1.5963	-1.7387	-1.8943	-2.0645	-2.2505	-2.4539	-2.6761	-2.9187	-3.1832	-3.4711	-3.7837	-4.1219	-4.4865	-4.8771	-5.2925	-5.7298	-6.1842	-6.648	-7.1099	-7.5545	-7.9613	-8.3043	-8.5526	-8.6714	-8.6246	-8.3784	-7.906	-7.1926	-6.2388	-5.0626	-3.6976	-2.1889	-0.58744	1.0559	2.6953	4.2931	5.8214	7.2612	8.6019	9.8393	10.974	12.01	12.955	13.814	14.597	15.313	15.968	16.572	17.133	17.658	18.157	18.636	19.106	19.578	20.064	20.581	21.149	21.797	22.564	23.502	24.677	26.151	27.916	29.692	30.578	29.098	24.7	18.953	13.798	9.9511	7.2798	5.4526	4.1903	3.3012	2.6612	2.1904	1.8373	1.5675	1.358	1.1929	1.0609	0.95412	0.86671	0.79438	0.7339	0.68284	0.63932	0.6019	0.56945	0.54107	0.51605	0.49383	0.47395	0.45604	0.43979	0.42497	0.41136	0.39881
-1.3287	-1.4459	-1.5739	-1.7137	-1.8665	-2.0334	-2.2159	-2.4153	-2.6331	-2.8709	-3.13	-3.4122	-3.7186	-4.0504	-4.4083	-4.7924	-5.2015	-5.6335	-6.0839	-6.546	-7.0096	-7.4603	-7.879	-8.2413	-8.5176	-8.6739	-8.6742	-8.4835	-8.0727	-7.4235	-6.532	-5.4117	-4.0922	-2.6161	-1.0334	0.60441	2.2498	3.8628	5.4127	6.8783	8.2469	9.5127	10.675	11.738	12.706	13.588	14.391	15.124	15.795	16.412	16.984	17.518	18.023	18.507	18.979	19.449	19.929	20.436	20.988	21.611	22.342	23.228	24.333	25.723	27.42	29.249	30.507	29.794	26.102	20.494	15.056	10.851	7.8961	5.8737	4.4821	3.5075	2.8099	2.2997	1.9189	1.6293	1.4054	1.2295	1.0894	0.97646	0.88425	0.80815	0.74468	0.69123	0.64578	0.60679	0.57305	0.54361	0.51771	0.49476	0.47427	0.45584	0.43917	0.42398	0.41007	0.39726
-1.3098	-1.425	-1.5507	-1.688	-1.8379	-2.0016	-2.1805	-2.3759	-2.5893	-2.8222	-3.0761	-3.3524	-3.6527	-3.9781	-4.3293	-4.7067	-5.1095	-5.5357	-5.9818	-6.4414	-6.9056	-7.3611	-7.7901	-8.1698	-8.4717	-8.663	-8.7078	-8.5707	-8.2204	-7.6352	-6.8072	-5.7451	-4.4743	-3.0346	-1.4745	0.15426	1.8027	3.4285	4.9985	6.4889	7.8848	9.1789	10.369	11.459	12.452	13.357	14.18	14.931	15.618	16.249	16.832	17.376	17.888	18.376	18.85	19.32	19.796	20.294	20.832	21.433	22.13	22.97	24.009	25.317	26.936	28.769	30.293	30.261	27.36	22.055	16.408	11.841	8.5786	6.3391	4.8031	3.7329	2.9715	2.4177	2.0065	1.6953	1.4557	1.2682	1.1194	0.99977	0.90242	0.8223	0.75566	0.69967	0.65219	0.61154	0.57645	0.5459	0.51909	0.49538	0.47425	0.4553	0.43818	0.42263	0.40841	0.39534
-1.2904	-1.4035	-1.5269	-1.6616	-1.8086	-1.9691	-2.1445	-2.3359	-2.5449	-2.7729	-3.0215	-3.2922	-3.5863	-3.9052	-4.2497	-4.6203	-5.0165	-5.4368	-5.878	-6.3347	-6.7986	-7.2576	-7.6954	-8.0904	-8.4157	-8.6395	-8.7265	-8.6407	-8.3494	-7.8279	-7.064	-6.062	-4.843	-3.4433	-1.9097	-0.29367	1.3546	2.9908	4.579	6.093	7.5158	8.8379	10.056	11.173	12.191	13.119	13.964	14.734	15.437	16.082	16.678	17.231	17.751	18.245	18.722	19.191	19.665	20.155	20.68	21.261	21.929	22.725	23.704	24.933	26.469	28.272	29.969	30.51	28.434	23.596	17.844	12.927	9.3341	6.854	5.1564	3.9797	3.1472	2.5452	2.1007	1.7658	1.5091	1.3091	1.1509	1.0241	0.92127	0.83687	0.76685	0.70818	0.65854	0.61615	0.57965	0.54794	0.52017	0.49567	0.47389	0.4544	0.43683	0.4209	0.40637	0.39305
-1.2705	-1.3815	-1.5026	-1.6347	-1.7788	-1.9361	-2.1079	-2.2953	-2.5	-2.7232	-2.9665	-3.2315	-3.5195	-3.832	-4.1698	-4.5335	-4.9231	-5.3372	-5.7731	-6.2262	-6.6889	-7.1504	-7.5955	-8.0039	-8.3504	-8.6042	-8.7309	-8.6942	-8.4603	-8.0015	-7.3022	-6.362	-5.1975	-3.8413	-2.338	-0.73843	0.90644	2.5503	4.1547	5.6911	7.1399	8.4899	9.7364	10.88	11.925	12.876	13.743	14.532	15.252	15.912	16.52	17.084	17.612	18.112	18.592	19.063	19.534	20.018	20.531	21.095	21.736	22.493	23.416	24.572	26.023	27.77	29.566	30.562	29.295	25.074	19.349	14.111	10.169	7.424	5.5462	4.2502	3.3387	2.6834	2.202	1.8413	1.566	1.3523	1.184	1.0496	0.94084	0.85187	0.77826	0.71675	0.66483	0.62062	0.58262	0.5497	0.52094	0.49562	0.47317	0.45312	0.4351	0.41879	0.40395	0.39036
-1.2501	-1.3591	-1.4779	-1.6073	-1.7486	-1.9027	-2.0709	-2.2544	-2.4547	-2.6731	-2.9113	-3.1706	-3.4526	-3.7586	-4.0896	-4.4465	-4.8293	-5.237	-5.6674	-6.1163	-6.5772	-7.0401	-7.491	-7.9111	-8.2766	-8.558	-8.7218	-8.7319	-8.5533	-8.1563	-7.5217	-6.6445	-5.537	-4.2277	-2.7585	-1.1791	0.45894	2.1076	3.7262	5.2835	6.7574	8.1348	9.4094	10.58	11.651	12.627	13.516	14.325	15.063	15.738	16.359	16.934	17.47	17.977	18.462	18.934	19.403	19.883	20.386	20.934	21.551	22.272	23.145	24.231	25.598	27.275	29.109	30.448	29.927	26.44	20.896	15.393	11.091	8.0553	5.9765	4.5474	3.5477	2.8332	2.3113	1.9222	1.6266	1.3982	1.2189	1.0762	0.96118	0.86733	0.78991	0.72538	0.67106	0.62491	0.58536	0.55117	0.52138	0.49522	0.47208	0.45146	0.43296	0.41627	0.40112	0.38727
-1.2294	-1.3363	-1.4527	-1.5796	-1.718	-1.8689	-2.0336	-2.2132	-2.4092	-2.6229	-2.8559	-3.1096	-3.3856	-3.6851	-4.0095	-4.3595	-4.7354	-5.1365	-5.5611	-6.0054	-6.4637	-6.927	-7.3824	-7.8126	-8.195	-8.5017	-8.7	-8.7544	-8.6291	-8.2926	-7.7223	-6.9092	-5.8607	-4.6014	-3.1699	-1.6146	0.013025	1.6635	3.2939	4.8704	6.3685	7.7728	9.0754	10.274	11.371	12.372	13.283	14.113	14.869	15.56	16.195	16.781	17.327	17.84	18.33	18.804	19.274	19.749	20.244	20.777	21.373	22.062	22.888	23.911	25.197	26.793	28.621	30.199	30.332	27.65	22.454	16.766	12.104	8.7543	6.4523	4.8742	3.7761	2.9959	2.4293	2.009	1.6913	1.4468	1.2557	1.1041	0.98231	0.88326	0.80178	0.73406	0.67721	0.62903	0.58785	0.55234	0.52148	0.49444	0.47058	0.44938	0.43041	0.41334	0.39787	0.38377
-1.2084	-1.3132	-1.4273	-1.5517	-1.6872	-1.8349	-1.996	-2.1718	-2.3635	-2.5725	-2.8004	-3.0486	-3.3186	-3.6118	-3.9295	-4.2726	-4.6416	-5.036	-5.4544	-5.8938	-6.3489	-6.8116	-7.2704	-7.709	-8.1064	-8.436	-8.6664	-8.7625	-8.6883	-8.4106	-7.904	-7.1555	-6.168	-4.9616	-3.5715	-2.044	-0.4304	1.2187	2.8584	4.4523	5.9734	7.404	8.7343	9.9608	11.085	12.111	13.045	13.895	14.67	15.378	16.027	16.625	17.181	17.702	18.197	18.674	19.144	19.616	20.104	20.625	21.2	21.86	22.645	23.608	24.817	26.329	28.119	29.849	30.523	28.667	23.98	18.22	13.214	9.5278	6.9786	5.2341	4.0262	3.1729	2.5568	2.1023	1.7603	1.4984	1.2945	1.1333	1.0043	0.89968	0.81389	0.74278	0.68326	0.63295	0.59006	0.55318	0.5212	0.49326	0.46867	0.44688	0.42743	0.40996	0.39418	0.37984
-1.1872	-1.2899	-1.4017	-1.5234	-1.6561	-1.8007	-1.9584	-2.1303	-2.3178	-2.5222	-2.745	-2.9877	-3.2518	-3.5388	-3.8498	-4.186	-4.548	-4.9355	-5.3476	-5.7816	-6.2329	-6.6944	-7.1553	-7.6009	-8.0113	-8.3617	-8.6216	-8.7569	-8.7314	-8.5108	-8.067	-7.3834	-6.4584	-5.3074	-3.962	-2.4662	-0.8704	0.77405	2.4204	4.0297	5.5724	7.0285	8.3862	9.6404	10.791	11.843	12.801	13.673	14.467	15.191	15.855	16.466	17.032	17.561	18.062	18.543	19.013	19.483	19.965	20.475	21.034	21.667	22.414	23.323	24.459	25.886	27.615	29.426	30.524	29.464	25.429	19.736	14.421	10.382	7.5613	5.6312	4.3005	3.3658	2.6948	2.2026	1.8341	1.5532	1.3354	1.164	1.0271	0.9166	0.82622	0.75153	0.68919	0.63664	0.59197	0.55365	0.52052	0.49166	0.46632	0.44392	0.42399	0.40613	0.39004	0.37546
-1.1657	-1.2664	-1.3759	-1.4951	-1.6249	-1.7664	-1.9206	-2.0887	-2.2721	-2.4719	-2.6898	-2.9271	-3.1853	-3.466	-3.7704	-4.0997	-4.4547	-4.8353	-5.2408	-5.6691	-6.1162	-6.5755	-7.0376	-7.4887	-7.9105	-8.2794	-8.5664	-8.7383	-8.759	-8.5935	-8.2114	-7.5926	-6.7312	-5.638	-4.3407	-2.8802	-1.306	0.33037	1.9804	3.6029	5.1658	6.6465	8.0311	9.3131	10.491	11.569	12.551	13.445	14.258	15	15.679	16.303	16.88	17.418	17.925	18.411	18.882	19.351	19.828	20.329	20.871	21.481	22.193	23.052	24.12	25.465	27.12	28.955	30.367	30.031	26.754	21.286	15.724	11.324	8.2064	6.0695	4.6016	3.5762	2.8444	2.3106	1.9131	1.6114	1.3786	1.1961	1.0509	0.93402	0.83876	0.76028	0.69496	0.64008	0.59353	0.55373	0.51942	0.4896	0.4635	0.44049	0.42007	0.40183	0.38544	0.37062
-1.1441	-1.2427	-1.3499	-1.4666	-1.5936	-1.732	-1.8828	-2.0472	-2.2264	-2.4218	-2.6347	-2.8666	-3.1191	-3.3936	-3.6915	-4.0139	-4.3618	-4.7355	-5.1343	-5.5565	-5.9988	-6.4554	-6.9177	-7.373	-7.8044	-8.1898	-8.5015	-8.7074	-8.7719	-8.6592	-8.3374	-7.783	-6.9861	-5.9528	-4.7065	-3.285	-1.7361	-0.11145	1.5393	3.1726	4.7539	6.2581	7.6691	8.9786	10.184	11.288	12.294	13.211	14.045	14.805	15.499	16.136	16.725	17.272	17.786	18.276	18.75	19.218	19.691	20.184	20.713	21.301	21.981	22.796	23.801	25.065	26.638	28.458	30.084	30.372	27.912	22.835	17.116	12.359	8.9204	6.5541	4.9328	3.8061	3.0067	2.427	1.9976	1.6734	1.4242	1.2297	1.0756	0.95194	0.85149	0.769	0.70055	0.64321	0.59472	0.55338	0.51784	0.48705	0.46017	0.43655	0.41564	0.39702	0.38034	0.3653
-1.1224	-1.2189	-1.3238	-1.438	-1.5623	-1.6976	-1.8451	-2.0058	-2.1809	-2.3718	-2.5799	-2.8065	-3.0533	-3.3217	-3.613	-3.9287	-4.2695	-4.6361	-5.028	-5.444	-5.8811	-6.3343	-6.7958	-7.2542	-7.6936	-8.0935	-8.4276	-8.665	-8.7706	-8.7086	-8.4453	-7.9546	-7.2226	-6.2509	-5.0584	-3.6795	-2.1598	-0.55046	1.0977	2.7393	4.3371	5.8636	7.3004	8.6371	9.8701	11	12.032	12.971	13.825	14.604	15.315	15.966	16.566	17.123	17.645	18.14	18.617	19.085	19.555	20.04	20.557	21.126	21.778	22.551	23.498	24.686	26.175	27.949	29.706	30.505	28.866	24.341	18.584	13.489	9.7099	7.09	5.2974	4.0576	3.1831	2.5526	2.0882	1.7393	1.4724	1.2649	1.1012	0.97034	0.86438	0.77765	0.70591	0.64599	0.59549	0.55256	0.51576	0.48397	0.45631	0.43207	0.41068	0.39169	0.37473	0.35948
-1.1006	-1.1951	-1.2977	-1.4094	-1.531	-1.6633	-1.8074	-1.9644	-2.1355	-2.3221	-2.5253	-2.7468	-2.9879	-3.2502	-3.5351	-3.844	-4.1778	-4.5372	-4.9222	-5.3317	-5.7632	-6.2125	-6.6724	-7.1326	-7.5786	-7.9911	-8.3454	-8.6117	-8.7559	-8.742	-8.5354	-8.1075	-7.4405	-6.5319	-5.3957	-4.0627	-2.5759	-0.98568	0.65658	2.3036	3.9159	5.4633	6.9249	8.2886	9.5488	10.705	11.762	12.725	13.601	14.398	15.125	15.791	16.403	16.97	17.5	18.001	18.481	18.95	19.418	19.897	20.403	20.956	21.581	22.317	23.211	24.327	25.732	27.441	29.262	30.455	29.596	25.755	20.106	14.717	10.581	7.6829	5.6993	4.3331	3.375	2.6883	2.1853	1.8095	1.5233	1.3019	1.1278	0.98919	0.87738	0.78617	0.71097	0.64837	0.59578	0.5512	0.51312	0.48032	0.45188	0.42702	0.40516	0.38582	0.36858	0.35314
-1.0787	-1.1712	-1.2716	-1.3808	-1.4997	-1.629	-1.7698	-1.9232	-2.0904	-2.2726	-2.4711	-2.6874	-2.923	-3.1793	-3.4578	-3.7599	-4.0867	-4.4389	-4.8168	-5.2196	-5.6453	-6.09	-6.5476	-7.0086	-7.4598	-7.8831	-8.2554	-8.5482	-8.7284	-8.7601	-8.6081	-8.2416	-7.6396	-6.795	-5.7175	-4.4336	-2.9834	-1.4161	0.21675	1.8663	3.4908	5.0574	6.5429	7.9329	9.2204	10.404	11.486	12.472	13.37	14.186	14.931	15.611	16.236	16.814	17.352	17.859	18.343	18.813	19.28	19.754	20.251	20.788	21.391	22.092	22.938	23.987	25.309	26.942	28.775	30.253	30.094	27.032	21.652	16.038	11.541	8.3389	6.1428	4.6354	3.584	2.8349	2.2895	1.8841	1.5771	1.3405	1.1553	1.0084	0.89043	0.79449	0.71568	0.65028	0.59552	0.54927	0.50987	0.47606	0.44683	0.42137	0.39905	0.37936	0.36188	0.34627
-1.0569	-1.1473	-1.2455	-1.3523	-1.4684	-1.5948	-1.7324	-1.8822	-2.0455	-2.2234	-2.4172	-2.6284	-2.8585	-3.1089	-3.3811	-3.6764	-3.9962	-4.3413	-4.712	-5.1079	-5.5274	-5.9671	-6.4217	-6.8825	-7.3375	-7.77	-8.1583	-8.4752	-8.6887	-8.7636	-8.6639	-8.3573	-7.8197	-7.04	-6.0231	-4.7912	-3.3813	-1.8407	-0.22083	1.4282	3.0623	4.6464	6.1546	7.5703	8.8847	10.095	11.203	12.213	13.132	13.969	14.731	15.426	16.064	16.653	17.2	17.714	18.202	18.675	19.14	19.61	20.099	20.622	21.204	21.875	22.676	23.664	24.906	26.456	28.265	29.933	30.369	28.129	23.185	17.443	12.592	9.0643	6.6325	4.9673	3.8119	2.9937	2.4014	1.9636	1.6338	1.3808	1.1838	1.0281	0.90345	0.80254	0.71994	0.65165	0.59466	0.54668	0.50596	0.47114	0.44112	0.41508	0.39232	0.37231	0.3546	0.33884
-1.035	-1.1234	-1.2194	-1.3238	-1.4373	-1.5607	-1.6951	-1.8414	-2.0008	-2.1745	-2.3637	-2.5699	-2.7945	-3.039	-3.3049	-3.5936	-3.9064	-4.2443	-4.6078	-4.9967	-5.4097	-5.844	-6.2949	-6.7546	-7.2122	-7.6523	-8.0545	-8.3932	-8.6375	-8.7529	-8.7032	-8.4548	-7.9808	-7.2662	-6.3116	-5.1345	-3.7684	-2.2583	-0.65519	0.98993	2.6311	4.2307	5.7602	7.2008	8.5417	9.7786	10.912	11.947	12.889	13.745	14.525	15.236	15.888	16.487	17.044	17.564	18.058	18.533	18.998	19.465	19.946	20.458	21.02	21.663	22.424	23.355	24.522	25.987	27.745	29.524	30.439	29.014	24.661	18.917	13.739	9.8652	7.1735	5.3323	4.0607	3.1655	2.5215	2.0482	1.6935	1.4229	1.213	1.0479	0.91636	0.81022	0.72367	0.65238	0.5931	0.54338	0.50133	0.46549	0.43471	0.4081	0.38493	0.36462	0.34672	0.33084
-1.0131	-1.0995	-1.1934	-1.2954	-1.4062	-1.5268	-1.658	-1.8008	-1.9564	-2.1259	-2.3106	-2.5118	-2.7311	-2.9698	-3.2294	-3.5115	-3.8174	-4.148	-4.5042	-4.8859	-5.2922	-5.7207	-6.1673	-6.6251	-7.0842	-7.5304	-7.9446	-8.3028	-8.5754	-8.7286	-8.7265	-8.5343	-8.1229	-7.4735	-6.5824	-5.4626	-4.1436	-2.6678	-1.0853	0.5525	2.1979	3.8106	5.36	6.8245	8.1913	9.4548	10.614	11.673	12.638	13.515	14.313	15.04	15.705	16.316	16.882	17.41	17.909	18.387	18.853	19.317	19.792	20.293	20.839	21.456	22.18	23.059	24.156	25.536	27.225	29.053	30.332	29.669	26.03	20.436	14.979	10.748	7.7712	5.7338	4.3326	3.3518	2.6505	2.1382	1.7564	1.4667	1.2431	1.068	0.92902	0.8174	0.72675	0.65237	0.59076	0.53928	0.4959	0.45906	0.42754	0.40039	0.37684	0.35628	0.33821	0.32225
-0.99129	-1.0758	-1.1674	-1.267	-1.3753	-1.493	-1.621	-1.7604	-1.9122	-2.0776	-2.2578	-2.4542	-2.6681	-2.901	-3.1546	-3.4301	-3.729	-4.0524	-4.4012	-4.7756	-5.175	-5.5973	-6.0391	-6.4943	-6.9537	-7.4045	-7.8291	-8.2046	-8.5029	-8.6914	-8.7343	-8.5962	-8.2459	-7.6615	-6.8349	-5.7746	-4.5059	-3.0681	-1.51	0.11683	1.7633	3.3869	4.9542	6.4415	7.8337	9.1233	10.309	11.392	12.379	13.277	14.094	14.837	15.516	16.14	16.715	17.251	17.755	18.236	18.703	19.166	19.635	20.126	20.657	21.251	21.942	22.774	23.805	25.103	26.713	28.542	30.079	30.09	27.247	21.968	16.309	11.717	8.4312	6.1759	4.6298	3.5537	2.789	2.2339	1.8226	1.5121	1.2737	1.088	0.94128	0.82394	0.72905	0.6515	0.58753	0.53428	0.48959	0.45179	0.41957	0.39192	0.36802	0.34724	0.32905	0.31304
-0.96953	-1.052	-1.1416	-1.2388	-1.3445	-1.4593	-1.5843	-1.7203	-1.8684	-2.0297	-2.2054	-2.3969	-2.6056	-2.8329	-3.0803	-3.3493	-3.6413	-3.9575	-4.2989	-4.6659	-5.0581	-5.4739	-5.9104	-6.3622	-6.821	-7.2752	-7.7083	-8.099	-8.4208	-8.6418	-8.7272	-8.6408	-8.3501	-7.8301	-7.0687	-6.0697	-4.8541	-3.4581	-1.9283	-0.31607	1.3282	2.96	4.5434	6.052	7.4687	8.7841	9.9951	11.103	12.113	13.032	13.867	14.627	15.321	15.956	16.541	17.085	17.595	18.08	18.548	19.009	19.475	19.957	20.474	21.048	21.708	22.496	23.466	24.686	26.212	28.008	29.713	30.288	28.271	23.472	17.716	12.776	9.1592	6.6626	4.9549	3.7726	2.9377	2.3354	1.8919	1.559	1.3049	1.1078	0.95296	0.82967	0.7304	0.64964	0.58329	0.5283	0.48233	0.44361	0.41073	0.38263	0.35844	0.33749	0.31923	0.30321
-0.94784	-1.0284	-1.1158	-1.2107	-1.3138	-1.4259	-1.5478	-1.6804	-1.8248	-1.9821	-2.1534	-2.3402	-2.5436	-2.7653	-3.0066	-3.2691	-3.5542	-3.8632	-4.1972	-4.5566	-4.9415	-5.3506	-5.7813	-6.229	-6.6863	-7.1425	-7.5826	-7.9866	-8.3293	-8.5804	-8.7055	-8.6685	-8.4355	-7.979	-7.283	-6.347	-5.1874	-3.8365	-2.3388	-0.74514	0.89348	2.5306	4.1279	5.6563	7.0964	8.4369	9.6733	10.806	11.839	12.779	13.633	14.409	15.117	15.765	16.36	16.912	17.428	17.917	18.387	18.847	19.308	19.783	20.288	20.843	21.475	22.223	23.138	24.283	25.724	27.464	29.261	30.284	29.072	24.9	19.183	13.926	9.9606	7.1984	5.3106	4.0099	3.0971	2.443	1.9643	1.6073	1.3362	1.1273	0.96382	0.83436	0.73063	0.64662	0.57792	0.52122	0.47403	0.43444	0.40098	0.37249	0.34807	0.327	0.30871	0.29274
-0.92623	-1.0049	-1.0902	-1.1828	-1.2833	-1.3926	-1.5115	-1.6408	-1.7815	-1.9348	-2.1018	-2.2838	-2.4821	-2.6982	-2.9335	-3.1895	-3.4678	-3.7696	-4.096	-4.4479	-4.8253	-5.2273	-5.6518	-6.0948	-6.5497	-7.0068	-7.4523	-7.8677	-8.2291	-8.5077	-8.6698	-8.6797	-8.5023	-8.1081	-7.4776	-6.6057	-5.5045	-4.2021	-2.7405	-1.1692	0.46014	2.0995	3.7082	5.2546	6.7169	8.0818	9.343	10.5	11.556	12.516	13.389	14.183	14.905	15.565	16.17	16.73	17.253	17.745	18.217	18.677	19.135	19.603	20.096	20.634	21.241	21.953	22.816	23.892	25.248	26.916	28.748	30.106	29.634	26.204	20.681	15.164	10.84	7.7878	5.6996	4.267	3.2679	2.5566	2.0397	1.6565	1.3675	1.1459	0.97356	0.83778	0.72953	0.64229	0.57127	0.51293	0.4646	0.42422	0.39024	0.36144	0.33686	0.31574	0.29748	0.28161
-0.90471	-0.98146	-1.0647	-1.155	-1.253	-1.3596	-1.4754	-1.6014	-1.7385	-1.8879	-2.0506	-2.2278	-2.421	-2.6316	-2.8609	-3.1105	-3.3819	-3.6765	-3.9955	-4.3396	-4.7094	-5.104	-5.522	-5.9597	-6.4113	-6.8682	-7.3177	-7.7426	-8.1206	-8.424	-8.6205	-8.6746	-8.5508	-8.2174	-7.652	-6.8452	-5.8044	-4.5538	-3.132	-1.5871	0.029211	1.6675	3.2849	4.8473	6.3303	7.7184	9.0039	10.185	11.263	12.245	13.136	13.946	14.683	15.355	15.971	16.539	17.067	17.564	18.038	18.497	18.952	19.414	19.897	20.419	21.003	21.681	22.497	23.509	24.783	26.37	28.192	29.783	29.958	27.337	22.174	16.482	11.801	8.4349	6.1248	4.5452	3.4503	2.6763	2.1176	1.7064	1.3982	1.1634	0.98186	0.83963	0.72685	0.63643	0.56319	0.50331	0.45393	0.41287	0.37848	0.34945	0.32478	0.30369	0.28554	0.26982
-0.88331	-0.95816	-1.0393	-1.1273	-1.2229	-1.3267	-1.4395	-1.5623	-1.6958	-1.8412	-1.9997	-2.1723	-2.3604	-2.5655	-2.7888	-3.0321	-3.2967	-3.584	-3.8954	-4.2318	-4.5937	-4.9808	-5.3918	-5.8236	-6.2713	-6.7269	-7.179	-7.6117	-8.0041	-8.33	-8.5581	-8.6538	-8.581	-8.3068	-7.8058	-7.0646	-6.0862	-4.8902	-3.512	-1.9975	-0.39817	1.2356	2.8587	4.4347	5.9367	7.3469	8.6557	9.8597	10.96	11.962	12.873	13.699	14.45	15.134	15.76	16.336	16.87	17.371	17.847	18.306	18.758	19.214	19.688	20.195	20.757	21.405	22.177	23.128	24.325	25.826	27.608	29.344	30.053	28.257	23.618	17.865	12.843	9.1435	6.5885	4.8456	3.6445	2.8015	2.1975	1.7562	1.4278	1.1792	0.98827	0.83957	0.72233	0.62884	0.55351	0.49223	0.44194	0.40033	0.36562	0.33647	0.31182	0.29084	0.27286	0.25737
-0.86201	-0.93498	-1.0141	-1.0998	-1.1929	-1.294	-1.4039	-1.5234	-1.6534	-1.7949	-1.9491	-2.1171	-2.3002	-2.4998	-2.7173	-2.9541	-3.2119	-3.492	-3.7958	-4.1244	-4.4783	-4.8576	-5.2612	-5.6867	-6.1297	-6.5831	-7.0364	-7.4752	-7.8799	-8.2258	-8.483	-8.6174	-8.5933	-8.3763	-7.9386	-7.2633	-6.3487	-5.2102	-3.8791	-2.3991	-0.82078	0.80461	2.4303	4.0173	5.5362	6.967	8.298	9.5244	10.647	11.669	12.597	13.439	14.204	14.9	15.535	16.119	16.659	17.163	17.641	18.1	18.549	19	19.464	19.957	20.5	21.119	21.851	22.746	23.868	25.283	27.003	28.814	29.939	28.937	24.96	19.287	13.964	9.9159	7.0927	5.1688	3.8503	2.9316	2.2786	1.8051	1.4554	1.1927	0.99229	0.8372	0.71565	0.61928	0.54205	0.47956	0.42853	0.38651	0.35164	0.32249	0.29795	0.27717	0.25945	0.24425
-0.84084	-0.91194	-0.98898	-1.0725	-1.1631	-1.2616	-1.3685	-1.4848	-1.6112	-1.7489	-1.8989	-2.0623	-2.2404	-2.4346	-2.6461	-2.8767	-3.1276	-3.4005	-3.6966	-4.0173	-4.3631	-4.7344	-5.1303	-5.549	-5.9865	-6.4366	-6.89	-7.3333	-7.7483	-8.1119	-8.3954	-8.5659	-8.5877	-8.4258	-8.0502	-7.4406	-6.5911	-5.5124	-4.2318	-2.7903	-1.2373	0.3758	2.0005	3.5956	5.1291	6.5786	7.9304	9.1781	10.321	11.362	12.308	13.166	13.944	14.65	15.295	15.885	16.431	16.939	17.418	17.876	18.322	18.767	19.223	19.702	20.226	20.818	21.512	22.356	23.408	24.737	26.38	28.212	29.643	29.359	26.148	20.715	15.156	10.753	7.6384	5.5146	4.0666	3.0652	2.3594	1.852	1.4803	1.2032	0.99333	0.83205	0.70647	0.60749	0.52863	0.46516	0.41359	0.37135	0.33647	0.30746	0.28316	0.26268	0.2453	0.23048
-0.81981	-0.88905	-0.96406	-1.0454	-1.1336	-1.2293	-1.3333	-1.4464	-1.5694	-1.7033	-1.849	-2.0079	-2.181	-2.3697	-2.5754	-2.7996	-3.0438	-3.3094	-3.5978	-3.9104	-4.248	-4.611	-4.9989	-5.4102	-5.8417	-6.2877	-6.7399	-7.1861	-7.6095	-7.9884	-8.2957	-8.4994	-8.5644	-8.4553	-8.1402	-7.5959	-6.8122	-5.7954	-4.5687	-3.1697	-1.6462	-0.049636	1.5703	3.1702	4.7156	6.1816	7.5525	8.8201	9.9826	11.042	12.004	12.876	13.667	14.384	15.036	15.633	16.183	16.693	17.173	17.63	18.073	18.512	18.958	19.425	19.93	20.496	21.155	21.949	22.935	24.18	25.738	27.549	29.186	29.519	27.128	22.103	16.402	11.65	8.2246	5.8815	4.2913	3.2002	2.438	1.8952	1.501	1.2096	0.99068	0.82363	0.69442	0.59323	0.51307	0.44891	0.39706	0.35481	0.3201	0.29138	0.26744	0.24737	0.23043	0.21606
-0.79891	-0.86631	-0.93929	-1.0184	-1.1042	-1.1973	-1.2984	-1.4083	-1.5278	-1.6579	-1.7995	-1.9538	-2.122	-2.3053	-2.5051	-2.723	-2.9603	-3.2186	-3.4993	-3.8038	-4.133	-4.4874	-4.867	-5.2706	-5.6952	-6.1363	-6.5861	-7.0337	-7.4637	-7.8556	-8.184	-8.4181	-8.5235	-8.4646	-8.2082	-7.7283	-7.011	-6.058	-4.8882	-3.5356	-2.046	-0.47034	1.1407	2.7418	4.296	5.776	7.1638	8.4495	9.6299	10.706	11.684	12.569	13.37	14.097	14.756	15.358	15.911	16.423	16.902	17.357	17.796	18.228	18.664	19.117	19.604	20.145	20.769	21.516	22.438	23.602	25.07	26.829	28.588	29.422	27.853	23.395	17.673	12.599	8.8469	6.2656	4.5208	3.3333	2.5119	1.9326	1.516	1.2109	0.98353	0.81136	0.67912	0.57622	0.49518	0.43069	0.37886	0.33685	0.30251	0.27424	0.2508	0.23126	0.21486	0.20102
-0.77816	-0.84372	-0.91471	-0.99161	-1.075	-1.1654	-1.2637	-1.3704	-1.4865	-1.6127	-1.7502	-1.9	-2.0632	-2.2412	-2.4352	-2.6467	-2.8772	-3.1282	-3.4011	-3.6973	-4.0179	-4.3637	-4.7346	-5.1298	-5.5471	-5.9823	-6.4287	-6.8762	-7.3108	-7.7137	-8.0605	-8.3222	-8.465	-8.4536	-8.2537	-7.8372	-7.1864	-6.2987	-5.1885	-3.8862	-2.4349	-0.88479	0.7129	2.3111	3.8706	5.3615	6.7637	8.0653	9.2616	10.353	11.344	12.241	13.052	13.786	14.451	15.057	15.611	16.123	16.6	17.051	17.484	17.908	18.333	18.772	19.239	19.755	20.345	21.045	21.906	22.989	24.363	26.049	27.86	29.075	28.281	24.521	18.929	13.582	9.4954	6.6595	4.7487	3.4594	2.5769	1.9614	1.5234	1.2057	0.97097	0.79465	0.66017	0.5562	0.47482	0.41042	0.35894	0.31743	0.28368	0.25604	0.23326	0.21437	0.1986	0.18539
-0.75757	-0.82131	-0.8903	-0.96501	-1.046	-1.1338	-1.2292	-1.3328	-1.4454	-1.5679	-1.7013	-1.8466	-2.0049	-2.1774	-2.3656	-2.5708	-2.7944	-3.038	-3.303	-3.5909	-3.9028	-4.2395	-4.6015	-4.988	-5.3973	-5.8258	-6.2675	-6.7136	-7.1511	-7.5625	-7.9253	-8.2116	-8.3889	-8.4222	-8.2765	-7.9217	-7.3372	-6.516	-5.468	-4.2196	-2.8111	-1.2913	0.28828	1.8792	3.4399	4.9382	6.3516	7.6663	8.876	9.9803	10.983	11.889	12.707	13.447	14.115	14.723	15.277	15.787	16.26	16.705	17.13	17.544	17.956	18.378	18.825	19.313	19.868	20.522	21.32	22.323	23.6	25.193	27	28.482	28.376	25.402	20.107	14.565	10.151	7.0494	4.9647	3.5709	2.628	1.9781	1.5208	1.1925	0.95206	0.77289	0.6372	0.53297	0.45186	0.38802	0.33727	0.29656	0.26364	0.23683	0.21485	0.19673	0.18171	0.1692
-0.73714	-0.79907	-0.86607	-0.93862	-1.0172	-1.1025	-1.195	-1.2954	-1.4046	-1.5234	-1.6527	-1.7934	-1.9468	-2.114	-2.2963	-2.4951	-2.7119	-2.948	-3.2051	-3.4845	-3.7875	-4.1151	-4.4677	-4.845	-5.2456	-5.6666	-6.1026	-6.5458	-6.9843	-7.4022	-7.7784	-8.0864	-8.2951	-8.3699	-8.2758	-7.9811	-7.4621	-6.7082	-5.7247	-4.5338	-3.1725	-1.688	-0.13164	1.447	3.0044	4.506	5.9268	7.2512	8.4712	9.5853	10.596	11.509	12.333	13.075	13.744	14.35	14.902	15.406	15.873	16.31	16.724	17.125	17.521	17.924	18.346	18.804	19.321	19.925	20.659	21.579	22.752	24.237	25.991	27.634	28.099	25.947	21.116	15.492	10.778	7.4116	5.1524	3.6569	2.658	1.9782	1.5056	1.1696	0.92581	0.74551	0.60989	0.50633	0.42621	0.36348	0.31387	0.27427	0.24243	0.21664	0.19562	0.1784	0.16422	0.15249
-0.71688	-0.77701	-0.84205	-0.91244	-0.98868	-1.0713	-1.161	-1.2584	-1.3641	-1.4792	-1.6043	-1.7406	-1.8891	-2.0509	-2.2274	-2.4198	-2.6296	-2.8582	-3.1073	-3.3781	-3.672	-3.9901	-4.333	-4.7007	-5.092	-5.5046	-5.9339	-6.3727	-6.8106	-7.2328	-7.6197	-7.9465	-8.1833	-8.2966	-8.2512	-8.0143	-7.5599	-6.8736	-5.9564	-4.8263	-3.5168	-2.0728	-0.54512	1.0158	2.5647	4.0647	5.4886	6.8185	8.045	9.1652	10.181	11.098	11.922	12.664	13.331	13.932	14.477	14.974	15.43	15.854	16.254	16.638	17.014	17.393	17.786	18.209	18.682	19.232	19.896	20.725	21.785	23.142	24.798	26.501	27.399	26.043	21.828	16.268	11.318	7.7071	5.2871	3.7023	2.658	1.9567	1.4747	1.1355	0.89134	0.71205	0.578	0.47621	0.39785	0.33681	0.28877	0.25063	0.22011	0.19553	0.17563	0.15943	0.14619	0.13534
-0.6968	-0.75515	-0.81822	-0.88647	-0.96037	-1.0404	-1.1273	-1.2215	-1.3239	-1.4352	-1.5563	-1.6881	-1.8316	-1.9881	-2.1587	-2.3447	-2.5475	-2.7687	-3.0095	-3.2716	-3.5563	-3.8647	-4.1975	-4.5551	-4.9365	-5.3399	-5.7612	-6.1944	-6.6298	-7.0541	-7.4491	-7.7917	-8.0535	-8.2018	-8.202	-8.0205	-7.6291	-7.0104	-6.1611	-5.0949	-3.8415	-2.4433	-0.95014	0.58714	2.1217	3.6145	5.0362	6.3667	7.595	8.7168	9.7331	10.649	11.471	12.208	12.868	13.46	13.994	14.478	14.919	15.326	15.706	16.067	16.417	16.766	17.123	17.504	17.925	18.411	18.995	19.722	20.653	21.857	23.363	25.024	26.196	25.543	22.057	16.743	11.668	7.8747	5.3335	3.6878	2.6179	1.9083	1.4256	1.0888	0.848	0.67221	0.54145	0.4426	0.36685	0.3081	0.26207	0.22571	0.19677	0.17361	0.15497	0.13991	0.1277	0.11779
-0.67692	-0.73348	-0.79462	-0.86073	-0.93229	-1.0098	-1.0938	-1.185	-1.284	-1.3916	-1.5086	-1.6359	-1.7746	-1.9256	-2.0903	-2.2699	-2.4657	-2.6792	-2.9119	-3.1651	-3.4403	-3.7387	-4.0612	-4.4081	-4.779	-5.1722	-5.5846	-6.0107	-6.4419	-6.866	-7.2666	-7.6219	-7.9051	-8.085	-8.1274	-7.9983	-7.6682	-7.1165	-6.3363	-5.3367	-4.1437	-2.7968	-1.3444	0.16272	1.6764	3.1556	4.5688	5.8941	7.1185	8.2365	9.2482	10.158	10.972	11.699	12.347	12.925	13.443	13.908	14.328	14.711	15.065	15.395	15.711	16.021	16.334	16.661	17.019	17.428	17.916	18.523	19.302	20.316	21.613	23.119	24.377	24.257	21.541	16.684	11.676	7.8268	5.2469	3.5917	2.5274	1.8283	1.3562	1.0286	0.79551	0.62599	0.50032	0.40566	0.33335	0.2775	0.23392	0.19966	0.17254	0.15096	0.13372	0.11991	0.10883	0.099921
-0.65723	-0.71203	-0.77123	-0.83523	-0.90447	-0.97943	-1.0607	-1.1488	-1.2444	-1.3483	-1.4612	-1.5841	-1.7178	-1.8635	-2.0223	-2.1954	-2.3842	-2.59	-2.8143	-3.0585	-3.3241	-3.6122	-3.9239	-4.2597	-4.6194	-5.0018	-5.4041	-5.8216	-6.2467	-6.6686	-7.072	-7.4369	-7.738	-7.9457	-8.0266	-7.9468	-7.6755	-7.1899	-6.4793	-5.5488	-4.4204	-3.1303	-1.7251	-0.25531	1.2301	2.6885	4.0861	5.3992	6.613	7.7207	8.7214	9.6186	10.419	11.129	11.759	12.317	12.812	13.251	13.643	13.995	14.313	14.604	14.876	15.136	15.391	15.652	15.932	16.246	16.619	17.08	17.675	18.457	19.473	20.695	21.821	21.978	19.967	15.786	11.142	7.4637	4.9832	3.3963	2.3799	1.7143	1.2658	0.955	0.73414	0.57369	0.45494	0.36565	0.29762	0.24523	0.20451	0.17264	0.14755	0.12773	0.11201	0.099543	0.089649	0.08181
-0.63775	-0.69081	-0.74809	-0.80998	-0.87691	-0.94935	-1.0278	-1.1128	-1.2051	-1.3053	-1.4142	-1.5326	-1.6614	-1.8017	-1.9546	-2.1212	-2.3029	-2.501	-2.7168	-2.9519	-3.2076	-3.4852	-3.7858	-4.11	-4.4578	-4.8284	-5.2195	-5.6271	-6.0444	-6.4617	-6.8652	-7.2365	-7.552	-7.7834	-7.8988	-7.8647	-7.6494	-7.2282	-6.5874	-5.728	-4.668	-3.4403	-2.0891	-0.66433	0.78473	2.214	3.588	4.8809	6.0764	7.1662	8.1486	9.0262	9.8049	10.492	11.097	11.627	12.09	12.496	12.851	13.162	13.436	13.677	13.894	14.091	14.275	14.454	14.637	14.837	15.072	15.362	15.742	16.249	16.919	17.741	18.517	18.641	17.155	13.835	9.9304	6.7269	4.5242	3.0977	2.1759	1.5679	1.1559	0.86917	0.66479	0.51604	0.40586	0.32303	0.26001	0.21158	0.17407	0.14485	0.12198	0.10404	0.08996	0.078911	0.070269	0.063543
-0.6185	-0.66982	-0.7252	-0.785	-0.84964	-0.91956	-0.99525	-1.0773	-1.1662	-1.2627	-1.3675	-1.4815	-1.6054	-1.7403	-1.8873	-2.0474	-2.222	-2.4122	-2.6195	-2.8453	-3.091	-3.3578	-3.6469	-3.959	-4.2943	-4.6523	-5.0311	-5.4273	-5.835	-6.2455	-6.6463	-7.0206	-7.3467	-7.5978	-7.7435	-7.7508	-7.5882	-7.2293	-6.6577	-5.8709	-4.8829	-3.7229	-2.4328	-1.0611	0.34282	1.7339	3.075	4.3388	5.5072	6.5706	7.5264	8.3764	9.1259	9.782	10.353	10.847	11.272	11.635	11.944	12.205	12.424	12.605	12.754	12.876	12.975	13.058	13.13	13.201	13.281	13.385	13.533	13.749	14.052	14.427	14.744	14.621	13.456	11.05	8.1583	5.6809	3.9051	2.7152	1.926	1.3952	1.0302	0.77346	0.58904	0.45412	0.35385	0.27837	0.22094	0.17689	0.14288	0.11651	0.096013	0.080074	0.0677	0.058132	0.050786	0.045207
-0.59948	-0.64908	-0.70257	-0.76031	-0.82267	-0.89009	-0.96304	-1.042	-1.1276	-1.2205	-1.3213	-1.4308	-1.5499	-1.6794	-1.8204	-1.974	-2.1414	-2.3237	-2.5224	-2.7388	-2.9743	-3.23	-3.5073	-3.8068	-4.129	-4.4736	-4.839	-5.2224	-5.6186	-6.0201	-6.4155	-6.7895	-7.1222	-7.3887	-7.5599	-7.6043	-7.4904	-7.1909	-6.6873	-5.9739	-5.0609	-3.9739	-2.7519	-1.4417	-0.092244	1.2508	2.5492	3.7739	4.9056	5.9335	6.8537	7.6675	8.3795	8.9963	9.5258	9.9757	10.354	10.667	10.922	11.124	11.28	11.392	11.465	11.504	11.511	11.491	11.448	11.387	11.316	11.244	11.182	11.144	11.136	11.141	11.072	10.717	9.7734	8.1557	6.2401	4.5216	3.2135	2.2891	1.6499	1.2064	0.89437	0.67121	0.50898	0.38929	0.29987	0.23235	0.18094	0.14155	0.11125	0.087875	0.069852	0.055986	0.045376	0.037327	0.031306	0.026893
-0.58071	-0.6286	-0.68022	-0.73591	-0.79602	-0.86097	-0.93119	-1.0072	-1.0895	-1.1787	-1.2755	-1.3806	-1.4948	-1.6189	-1.754	-1.9011	-2.0613	-2.2357	-2.4257	-2.6326	-2.8576	-3.1021	-3.3672	-3.6537	-3.9622	-4.2925	-4.6435	-5.0127	-5.3958	-5.7859	-6.1731	-6.5435	-6.8788	-7.1561	-7.3481	-7.4246	-7.3548	-7.1112	-6.6736	-6.0336	-5.1979	-4.1886	-3.0414	-1.8012	-0.5159	0.76883	2.0139	3.1893	4.2743	5.2571	6.1328	6.9019	7.5685	8.1386	8.6196	9.0189	9.3438	9.601	9.7967	9.9363	10.024	10.065	10.062	10.018	9.937	9.8219	9.6763	9.505	9.3135	9.1091	8.9001	8.6944	8.4943	8.2845	8.0123	7.5704	6.8322	5.7773	4.5737	3.4534	2.5461	1.8649	1.37	1.0131	0.75486	0.5662	0.42694	0.3231	0.24495	0.18571	0.14055	0.10599	0.079494	0.0592	0.043705	0.031952	0.023131	0.01662	0.011934	0.0086942
-0.5622	-0.6084	-0.65817	-0.71183	-0.76971	-0.8322	-0.89973	-0.97275	-1.0518	-1.1374	-1.2302	-1.3309	-1.4402	-1.559	-1.6882	-1.8287	-1.9817	-2.1482	-2.3294	-2.5267	-2.7412	-2.9742	-3.2268	-3.5	-3.7942	-4.1095	-4.4451	-4.7988	-5.167	-5.5436	-5.9198	-6.2832	-6.6171	-6.9005	-7.1081	-7.2114	-7.1807	-6.9887	-6.6141	-6.0467	-5.2897	-4.362	-3.296	-2.134	-0.92228	0.29388	1.4752	2.5909	3.6195	4.548	5.3709	6.0879	6.7024	7.2201	7.6478	7.9926	8.2616	8.4612	8.5974	8.6754	8.6998	8.6748	8.6042	8.4915	8.3403	8.1544	7.9382	7.6968	7.4362	7.1635	6.8857	6.6086	6.333	6.0478	5.7228	5.3072	4.7524	4.0589	3.3001	2.5785	1.9641	1.4767	1.1049	0.82592	0.61774	0.46212	0.34527	0.25707	0.19016	0.13921	0.10031	0.0706	0.047943	0.03074	0.017781	0.0081417	0.0011095	-0.0038685	-0.0072248	-0.0092995
-0.54396	-0.5885	-0.63644	-0.68808	-0.74376	-0.80383	-0.86868	-0.93876	-1.0146	-1.0966	-1.1854	-1.2818	-1.3863	-1.4998	-1.623	-1.7571	-1.9028	-2.0613	-2.2338	-2.4214	-2.6253	-2.8466	-3.0865	-3.3459	-3.6254	-3.9251	-4.2443	-4.5813	-4.933	-5.294	-5.6566	-6.0096	-6.3381	-6.623	-6.8409	-6.9654	-6.9682	-6.8227	-6.5075	-6.0106	-5.3328	-4.4895	-3.5099	-2.4333	-1.3041	-0.16616	0.94155	1.988	2.9513	3.8177	4.581	5.2404	5.7986	6.261	6.6341	6.9246	7.1396	7.2854	7.3681	7.3931	7.3655	7.2899	7.1707	7.0124	6.8194	6.5966	6.3493	6.0833	5.8049	5.5205	5.236	4.9553	4.6781	4.3967	4.0942	3.7473	3.3377	2.8698	2.3763	1.9032	1.4863	1.1409	0.86594	0.65211	0.48774	0.36202	0.26598	0.19259	0.13646	0.093536	0.060753	0.035794	0.016904	0.0027419	-0.0077202	-0.015278	-0.02055	-0.02402	-0.02607	-0.027001
-0.526	-0.5689	-0.61504	-0.6647	-0.71819	-0.77586	-0.83808	-0.90525	-0.97783	-1.0563	-1.1413	-1.2333	-1.333	-1.4412	-1.5586	-1.6862	-1.8247	-1.9753	-2.139	-2.3168	-2.51	-2.7196	-2.9466	-3.192	-3.4563	-3.7398	-4.0419	-4.3611	-4.6948	-5.0384	-5.3849	-5.7245	-6.0437	-6.3254	-6.5484	-6.6882	-6.7185	-6.6139	-6.3533	-5.9237	-5.3241	-4.5667	-3.6774	-2.6922	-1.6529	-0.60145	0.42421	1.3935	2.2843	3.0828	3.7822	4.3811	4.882	5.2898	5.6108	5.8517	6.0195	6.1206	6.1615	6.148	6.0857	5.9799	5.8358	5.6586	5.4535	5.226	4.9816	4.7261	4.465	4.2037	3.9463	3.6949	3.4486	3.2024	2.947	2.6716	2.3695	2.0443	1.7115	1.3924	1.1051	0.85965	0.65767	0.49571	0.36794	0.26814	0.19067	0.13079	0.084679	0.049312	0.022337	0.0019265	-0.01334	-0.024566	-0.032613	-0.038153	-0.041718	-0.043725	-0.044507	-0.044327
-0.50835	-0.54963	-0.59398	-0.64169	-0.69304	-0.74834	-0.80795	-0.87226	-0.94167	-1.0167	-1.0978	-1.1855	-1.2805	-1.3834	-1.4951	-1.6162	-1.7476	-1.8903	-2.0452	-2.2133	-2.3958	-2.5935	-2.8076	-3.0388	-3.2876	-3.5544	-3.8387	-4.1393	-4.4538	-4.7782	-5.1064	-5.4297	-5.7361	-6.0103	-6.2331	-6.3824	-6.434	-6.3642	-6.1527	-5.7863	-5.2623	-4.5906	-3.7935	-2.9037	-1.9596	-1.0009	-0.063529	0.82285	1.6366	2.3639	2.9978	3.5365	3.9823	4.3397	4.6148	4.8143	4.9452	5.0143	5.028	4.9927	4.9144	4.7988	4.6515	4.478	4.2837	4.0738	3.8535	3.6278	3.4011	3.1771	2.9586	2.7466	2.5401	2.336	2.1292	1.9149	1.6906	1.4588	1.227	1.0056	0.80397	0.62806	0.47978	0.35798	0.25982	0.1818	0.12041	0.072527	0.035468	0.0070368	-0.014543	-0.030693	-0.042541	-0.050983	-0.05673	-0.060345	-0.062277	-0.062883	-0.062448	-0.061202
-0.49102	-0.5307	-0.5733	-0.61909	-0.66832	-0.72129	-0.77834	-0.83982	-0.90611	-0.97766	-1.0549	-1.1385	-1.2288	-1.3266	-1.4325	-1.5472	-1.6715	-1.8064	-1.9526	-2.1111	-2.2829	-2.4688	-2.6698	-2.8867	-3.1199	-3.3697	-3.6357	-3.9169	-4.2112	-4.5151	-4.8232	-5.1277	-5.4182	-5.6809	-5.8988	-6.052	-6.1188	-6.0774	-5.9088	-5.6002	-5.1479	-4.5596	-3.8546	-3.0616	-2.2157	-1.3532	-0.50766	0.29286	1.0277	1.6833	2.2528	2.7344	3.1297	3.4433	3.6809	3.8491	3.9547	4.0046	4.0054	3.9635	3.8848	3.7752	3.6402	3.4851	3.3147	3.1338	2.9467	2.7573	2.569	2.3844	2.2051	2.0318	1.8636	1.6987	1.5346	1.369	1.2011	1.0324	0.8668	0.7096	0.5657	0.43851	0.32949	0.23836	0.16373	0.10361	0.055829	0.018338	-0.010714	-0.032913	-0.049583	-0.061813	-0.070493	-0.076338	-0.079929	-0.081733	-0.082123	-0.081403	-0.079816	-0.077558
-0.47401	-0.51212	-0.55301	-0.5969	-0.64405	-0.69474	-0.74927	-0.80797	-0.8712	-0.93936	-1.0129	-1.0923	-1.178	-1.2707	-1.3709	-1.4794	-1.5968	-1.7239	-1.8615	-2.0105	-2.1716	-2.3458	-2.5339	-2.7364	-2.9539	-3.1866	-3.4341	-3.6955	-3.9689	-4.2513	-4.5378	-4.8216	-5.0934	-5.3412	-5.55	-5.7021	-5.7782	-5.7588	-5.6267	-5.3698	-4.984	-4.4751	-3.8594	-3.1622	-2.4143	-1.6485	-0.89543	-0.18088	0.47577	1.0617	1.5702	1.9993	2.3504	2.6276	2.8363	2.9827	3.0735	3.1152	3.1142	3.0765	3.008	2.914	2.7997	2.6696	2.5282	2.3793	2.2264	2.0727	1.9204	1.7716	1.6273	1.4879	1.3531	1.2219	1.0929	0.96524	0.83862	0.71404	0.59361	0.48004	0.37599	0.28338	0.20317	0.13536	0.079217	0.033595	-0.0028521	-0.031487	-0.053585	-0.070282	-0.082559	-0.091245	-0.097033	-0.10049	-0.10209	-0.10221	-0.10117	-0.099209	-0.096542	-0.093334
-0.45736	-0.49392	-0.53312	-0.57516	-0.62027	-0.66872	-0.72078	-0.77675	-0.83697	-0.90181	-0.97167	-1.047	-1.1282	-1.2159	-1.3106	-1.4129	-1.5235	-1.643	-1.7721	-1.9117	-2.0624	-2.225	-2.4002	-2.5886	-2.7905	-3.006	-3.235	-3.4764	-3.7286	-3.9888	-4.2528	-4.5144	-4.7657	-4.996	-5.1921	-5.3388	-5.419	-5.4157	-5.3135	-5.1017	-4.7759	-4.3408	-3.8098	-3.2045	-2.5517	-1.8802	-1.2173	-0.58628	-0.0048292	0.51518	0.96724	1.3492	1.6623	1.91	2.0972	2.2296	2.3133	2.3542	2.3583	2.3312	2.2781	2.2038	2.1128	2.009	1.8963	1.7777	1.6562	1.534	1.4131	1.2948	1.1801	1.0693	0.9624	0.85884	0.75811	0.6598	0.56393	0.4711	0.38248	0.29954	0.2237	0.15606	0.097173	0.047095	0.0054199	-0.02855	-0.055676	-0.076868	-0.093011	-0.10492	-0.11333	-0.11886	-0.12205	-0.12334	-0.12313	-0.12171	-0.11934	-0.11624	-0.11257	-0.10848
-0.44105	-0.47612	-0.51366	-0.55388	-0.597	-0.64325	-0.69289	-0.7462	-0.80348	-0.86508	-0.93134	-1.0027	-1.0795	-1.1623	-1.2516	-1.3479	-1.4517	-1.5638	-1.6847	-1.815	-1.9555	-2.1068	-2.2694	-2.4438	-2.6303	-2.829	-3.0396	-3.2611	-3.4921	-3.7299	-3.9709	-4.2097	-4.4391	-4.65	-4.8309	-4.9686	-5.0486	-5.0561	-4.9778	-4.8044	-4.5317	-4.1634	-3.7104	-3.191	-2.6278	-2.0458	-1.4685	-0.91656	-0.40578	0.052979	0.45355	0.79368	1.0741	1.2978	1.4688	1.5923	1.6735	1.7178	1.7303	1.7161	1.6797	1.6253	1.5568	1.4775	1.3906	1.2986	1.2039	1.1085	1.0137	0.9208	0.83053	0.74329	0.65918	0.5781	0.49986	0.42435	0.35168	0.28223	0.21668	0.15582	0.10043	0.051106	0.0081774	-0.028343	-0.058707	-0.083362	-0.10288	-0.11788	-0.12898	-0.13678	-0.14182	-0.14457	-0.14546	-0.14482	-0.14297	-0.14015	-0.13659	-0.13244	-0.12786	-0.12295
-0.42512	-0.45871	-0.49464	-0.53309	-0.57426	-0.61837	-0.66565	-0.71636	-0.77077	-0.8292	-0.89197	-0.95943	-1.032	-1.11	-1.194	-1.2844	-1.3818	-1.4866	-1.5995	-1.7209	-1.8514	-1.9916	-2.1419	-2.3028	-2.4743	-2.6565	-2.8491	-3.0511	-3.2611	-3.4769	-3.6949	-3.9106	-4.1177	-4.3081	-4.4722	-4.5986	-4.6749	-4.6888	-4.629	-4.4875	-4.2609	-3.9517	-3.569	-3.1278	-2.647	-2.1475	-1.6495	-1.1708	-0.72526	-0.32265	0.031228	0.33402	0.586	0.78937	0.94759	1.0648	1.1457	1.1946	1.2162	1.2147	1.1939	1.1576	1.1089	1.0508	0.98584	0.91624	0.84391	0.77045	0.69714	0.62496	0.55462	0.48656	0.421	0.35804	0.29768	0.23998	0.18505	0.13316	0.084714	0.040142	-0.00012864	-0.035777	-0.066641	-0.092736	-0.11424	-0.13147	-0.1448	-0.15469	-0.16157	-0.16588	-0.16802	-0.16836	-0.16722	-0.16488	-0.16157	-0.15751	-0.15287	-0.14778	-0.14236	-0.13673
-0.40958	-0.44173	-0.47609	-0.51281	-0.55208	-0.5941	-0.63908	-0.68726	-0.73888	-0.79423	-0.85359	-0.9173	-0.98568	-1.0591	-1.138	-1.2227	-1.3138	-1.4116	-1.5166	-1.6294	-1.7503	-1.8798	-2.0183	-2.166	-2.3231	-2.4894	-2.6645	-2.8477	-3.0374	-3.2317	-3.4274	-3.6203	-3.8052	-3.975	-4.1215	-4.2351	-4.3056	-4.3224	-4.2766	-4.1612	-3.9736	-3.7157	-3.395	-3.0233	-2.6165	-2.1916	-1.7655	-1.3534	-0.96722	-0.61566	-0.30407	-0.034929	0.1916	0.37706	0.52412	0.63615	0.7169	0.77019	0.79977	0.80923	0.8019	0.78085	0.74882	0.70829	0.66143	0.61013	0.55602	0.50046	0.44455	0.38919	0.33502	0.28252	0.23198	0.18359	0.13747	0.093749	0.052551	0.014069	-0.021461	-0.053788	-0.082685	-0.10799	-0.12964	-0.14766	-0.16222	-0.17352	-0.18186	-0.18755	-0.19092	-0.19229	-0.19197	-0.19023	-0.18734	-0.1835	-0.17892	-0.17376	-0.16815	-0.16222	-0.15607	-0.14977
-0.39443	-0.42518	-0.458	-0.49304	-0.53047	-0.57046	-0.61321	-0.65893	-0.70785	-0.76021	-0.81628	-0.87634	-0.9407	-1.0097	-1.0836	-1.1629	-1.2478	-1.3389	-1.4365	-1.5409	-1.6526	-1.7718	-1.899	-2.0341	-2.1773	-2.3284	-2.4869	-2.652	-2.8224	-2.9961	-3.1704	-3.3416	-3.505	-3.6547	-3.7837	-3.884	-3.9472	-3.9646	-3.929	-3.8349	-3.68	-3.4659	-3.1986	-2.8878	-2.5459	-2.1871	-1.8251	-1.4726	-1.1398	-0.83434	-0.56107	-0.32252	-0.11926	0.049661	0.1862	0.29298	0.37299	0.42934	0.46515	0.48338	0.48683	0.47809	0.4595	0.43314	0.40087	0.36432	0.32488	0.28374	0.24189	0.20011	0.15903	0.11911	0.080697	0.04403	0.0092846	-0.023393	-0.053866	-0.08199	-0.10762	-0.1306	-0.15082	-0.1682	-0.18274	-0.1945	-0.20358	-0.21016	-0.21447	-0.21673	-0.2172	-0.21611	-0.21371	-0.21022	-0.20582	-0.2007	-0.19501	-0.18889	-0.18244	-0.17577	-0.16896	-0.16207
-0.37969	-0.40908	-0.44041	-0.47382	-0.50945	-0.54748	-0.58807	-0.63141	-0.67771	-0.72719	-0.78008	-0.83663	-0.8971	-0.96178	-1.031	-1.105	-1.1841	-1.2687	-1.3591	-1.4556	-1.5584	-1.6679	-1.7843	-1.9075	-2.0376	-2.1743	-2.3171	-2.4652	-2.6174	-2.7718	-2.9259	-3.0766	-3.2198	-3.3505	-3.4628	-3.55	-3.6053	-3.6218	-3.5937	-3.5166	-3.3888	-3.2117	-2.99	-2.7313	-2.4457	-2.1444	-1.8386	-1.5388	-1.2535	-0.98937	-0.75076	-0.54018	-0.35849	-0.20524	-0.079094	0.021913	0.1001	0.15797	0.19802	0.22272	0.2344	0.23521	0.22713	0.21195	0.19125	0.16643	0.13871	0.10913	0.07856	0.047728	0.017212	-0.012532	-0.041155	-0.068392	-0.094044	-0.11795	-0.13998	-0.16003	-0.17797	-0.19374	-0.20726	-0.21853	-0.22755	-0.23439	-0.23915	-0.24198	-0.24305	-0.24252	-0.24061	-0.23749	-0.23336	-0.22838	-0.22271	-0.21649	-0.20985	-0.2029	-0.19572	-0.18841	-0.18102	-0.17362
-0.36536	-0.39344	-0.42333	-0.45515	-0.48905	-0.52518	-0.56368	-0.60473	-0.6485	-0.6952	-0.74503	-0.7982	-0.85495	-0.91551	-0.98015	-1.0491	-1.1227	-1.2011	-1.2847	-1.3736	-1.4681	-1.5684	-1.6745	-1.7865	-1.9043	-2.0275	-2.1557	-2.288	-2.4232	-2.5597	-2.6953	-2.8271	-2.9517	-3.0648	-3.1615	-3.2365	-3.284	-3.2988	-3.2761	-3.2127	-3.1073	-2.9611	-2.7776	-2.5632	-2.3256	-2.0737	-1.8167	-1.5629	-1.3195	-1.0921	-0.88474	-0.69972	-0.53811	-0.39986	-0.28413	-0.18952	-0.11425	-0.056393	-0.01392	0.015164	0.032779	0.040728	0.040676	0.034137	0.022474	0.0068951	-0.01154	-0.031915	-0.053449	-0.075487	-0.097492	-0.11903	-0.13976	-0.15941	-0.17778	-0.1947	-0.21005	-0.22374	-0.23568	-0.24582	-0.25414	-0.26064	-0.26535	-0.26834	-0.26969	-0.26953	-0.26799	-0.26522	-0.26136	-0.25658	-0.25101	-0.2448	-0.23806	-0.23092	-0.22347	-0.21581	-0.20802	-0.20015	-0.19227	-0.18442
-0.35146	-0.37826	-0.40675	-0.43705	-0.46928	-0.50357	-0.54006	-0.5789	-0.62025	-0.66428	-0.71117	-0.7611	-0.81428	-0.87092	-0.93122	-0.9954	-1.0637	-1.1363	-1.2134	-1.2952	-1.3818	-1.4734	-1.57	-1.6715	-1.7778	-1.8886	-2.0032	-2.1209	-2.2406	-2.3607	-2.4794	-2.5941	-2.7019	-2.7991	-2.8818	-2.9456	-2.986	-2.9987	-2.9801	-2.9277	-2.8407	-2.7201	-2.5687	-2.3913	-2.1942	-1.9844	-1.7691	-1.5551	-1.3483	-1.1535	-0.97404	-0.81228	-0.6693	-0.54537	-0.44002	-0.3523	-0.2809	-0.22433	-0.181	-0.1493	-0.12767	-0.1146	-0.10869	-0.10867	-0.11337	-0.12175	-0.13289	-0.14597	-0.1603	-0.1753	-0.19047	-0.2054	-0.21977	-0.23332	-0.24585	-0.2572	-0.26725	-0.27591	-0.28313	-0.28886	-0.29311	-0.29588	-0.29721	-0.29716	-0.29583	-0.29329	-0.28967	-0.28509	-0.27967	-0.27353	-0.26678	-0.25955	-0.25193	-0.24402	-0.23591	-0.22766	-0.21934	-0.211	-0.2027	-0.19448
-0.33799	-0.36356	-0.3907	-0.41953	-0.45014	-0.48267	-0.51722	-0.55394	-0.59296	-0.63444	-0.67852	-0.72537	-0.77515	-0.82805	-0.88423	-0.94387	-1.0071	-1.0742	-1.1452	-1.2204	-1.2996	-1.3831	-1.4709	-1.5627	-1.6584	-1.7576	-1.8598	-1.9643	-2.0699	-2.1753	-2.2788	-2.3782	-2.471	-2.5542	-2.6246	-2.6785	-2.7125	-2.7231	-2.7076	-2.6643	-2.5925	-2.4929	-2.3681	-2.2217	-2.0586	-1.8842	-1.7044	-1.5245	-1.3494	-1.1831	-1.0285	-0.8877	-0.76191	-0.65151	-0.55634	-0.4758	-0.40896	-0.35468	-0.31174	-0.27885	-0.25474	-0.23818	-0.228	-0.22311	-0.22254	-0.22537	-0.23082	-0.23816	-0.24679	-0.25617	-0.26587	-0.2755	-0.28477	-0.29342	-0.30127	-0.30816	-0.31399	-0.31868	-0.32217	-0.32444	-0.32548	-0.32532	-0.324	-0.32158	-0.31811	-0.3137	-0.30843	-0.30241	-0.29573	-0.28849	-0.2808	-0.27274	-0.26441	-0.25587	-0.2472	-0.23846	-0.22971	-0.22099	-0.21234	-0.2038
-0.32496	-0.34934	-0.37518	-0.40259	-0.43166	-0.46249	-0.49519	-0.52988	-0.56668	-0.60571	-0.64711	-0.69103	-0.73758	-0.78693	-0.83921	-0.89457	-0.95314	-1.015	-1.0804	-1.1492	-1.2217	-1.2977	-1.3772	-1.4601	-1.5461	-1.6348	-1.7258	-1.8182	-1.9112	-2.0034	-2.0934	-2.1794	-2.2591	-2.3302	-2.3898	-2.4352	-2.4636	-2.4724	-2.4595	-2.4236	-2.3643	-2.2822	-2.1794	-2.0586	-1.9238	-1.7791	-1.6292	-1.4784	-1.3306	-1.189	-1.0564	-0.93438	-0.82426	-0.7265	-0.64115	-0.56786	-0.506	-0.45473	-0.41311	-0.38012	-0.35475	-0.33599	-0.32286	-0.31447	-0.30998	-0.3086	-0.30966	-0.31252	-0.31666	-0.3216	-0.32694	-0.33234	-0.33752	-0.34225	-0.34636	-0.3497	-0.35217	-0.3537	-0.35425	-0.35378	-0.35232	-0.34986	-0.34646	-0.34216	-0.33703	-0.33114	-0.32457	-0.31741	-0.30973	-0.30163	-0.29318	-0.28446	-0.27555	-0.26651	-0.2574	-0.24827	-0.23917	-0.23014	-0.22121	-0.21241
